  -1.4283200e-02   2.4462800e-03   6.1033000e-04
  -1.3567000e-02   2.4122700e-03  -1.2630000e-05
  -1.3196300e-02   2.3642800e-03  -7.6466000e-04
  -1.2151000e-02   3.3215400e-03  -1.5472900e-03
  -1.2519700e-02   3.3587500e-03  -2.2028000e-03
  -1.3205900e-02   3.4461500e-03  -2.7119200e-03
  -1.4153400e-02   3.6593400e-03  -3.0562200e-03
  -1.5153000e-02   3.7970800e-03  -3.0619400e-03
  -1.6073800e-02   3.9155900e-03  -2.7853900e-03
  -1.6776900e-02   4.0018900e-03  -2.2688100e-03
  -1.7157400e-02   4.0540700e-03  -1.5911400e-03
  -1.7159000e-02   4.0727600e-03  -8.5576000e-04
  -1.6781500e-02   4.0551200e-03  -1.7463000e-04
  -1.6080800e-02   3.9952500e-03   3.4878000e-04
  -1.5161200e-02   3.8910400e-03   6.3506000e-04
  -1.4161600e-02   3.7533000e-03   6.4078000e-04
  -1.3212600e-02   3.5230100e-03   3.1195000e-04
  -1.2524100e-02   3.4099300e-03  -1.8903000e-04
  -1.2152500e-02   3.3395200e-03  -8.4016000e-04
  -1.0777700e-02   4.0880900e-03  -1.5067500e-03
  -1.1148000e-02   4.1353300e-03  -2.0572200e-03
  -1.1834200e-02   4.2423000e-03  -2.4812200e-03
  -1.2737200e-02   4.4119100e-03  -2.7210300e-03
  -1.3756600e-02   4.6712200e-03  -2.7547600e-03
  -1.4665100e-02   4.8634900e-03  -2.5297300e-03
  -1.5359800e-02   5.0150500e-03  -2.1065900e-03
  -1.5737100e-02   5.1043600e-03  -1.5497800e-03
  -1.5738500e-02   5.1197600e-03  -9.4413000e-04
  -1.5363700e-02   5.0588900e-03  -3.8184000e-04
  -1.4670800e-02   4.9290900e-03   5.1540000e-05
  -1.3763400e-02   4.7486000e-03   2.9006000e-04
  -1.2743800e-02   4.4880300e-03   2.7407000e-04
  -1.1839800e-02   4.3065600e-03   4.7180000e-05
  -1.1151700e-02   4.1782700e-03  -3.6779000e-04
  -1.0779000e-02   4.1031700e-03  -9.1350000e-04
  -9.1326800e-03   4.6758300e-03  -1.4768700e-03
  -9.5137500e-03   4.7160600e-03  -1.9511000e-03
  -1.0222000e-02   4.8145000e-03  -2.3167000e-03
  -1.1145400e-02   4.9706900e-03  -2.5183700e-03
  -1.2134900e-02   5.1726400e-03  -2.5282400e-03
  -1.3064900e-02   5.4053700e-03  -2.3609600e-03
  -1.3749200e-02   5.5864900e-03  -1.9979400e-03
  -1.4123500e-02   5.6954800e-03  -1.5192300e-03
  -1.4124600e-02   5.7087400e-03  -9.9752000e-04
  -1.3752400e-02   5.6242500e-03  -5.1224000e-04
  -1.3069800e-02   5.4618800e-03  -1.3745000e-04
  -1.2140600e-02   5.2380600e-03   4.5550000e-05
  -1.1151100e-02   5.0359800e-03   5.0340000e-05
  -1.0226900e-02   4.8698500e-03  -1.3905000e-04
  -9.5169700e-03   4.7530500e-03  -4.9604000e-04
  -9.1338100e-03   4.6888200e-03  -9.6592000e-04
  -6.9478200e-03   5.2251700e-03  -1.4633200e-03
  -7.3798200e-03   5.2589900e-03  -1.8956700e-03
  -8.1822900e-03   5.3424000e-03  -2.2292400e-03
  -9.2269100e-03   5.4742300e-03  -2.4133900e-03
  -1.0342400e-02   5.6356300e-03  -2.4205500e-03
  -1.1370100e-02   5.7988100e-03  -2.2496700e-03
  -1.2155200e-02   5.9385100e-03  -1.9288800e-03
  -1.2578700e-02   6.0234500e-03  -1.4983000e-03
  -1.2579700e-02   6.0353900e-03  -1.0282400e-03
  -1.2158100e-02   5.9724900e-03  -5.9203000e-04
  -1.1374500e-02   5.8493500e-03  -2.6108000e-04
  -1.0347600e-02   5.6951800e-03  -7.7590000e-05
  -9.2321100e-03   5.5337600e-03  -7.1590000e-05
  -8.1866800e-03   5.3928500e-03  -2.4418000e-04
  -7.3827600e-03   5.2927000e-03  -5.6953000e-04
  -6.9488500e-03   5.2370100e-03  -9.9768000e-04
  -3.8142600e-03   5.7964600e-03  -1.4697400e-03
  -4.2923200e-03   5.8300700e-03  -1.9009500e-03
  -5.1814000e-03   5.9077200e-03  -2.2365800e-03
  -6.3466700e-03   6.0233300e-03  -2.4223700e-03
  -7.6562700e-03   6.1630800e-03  -2.4412300e-03
  -9.2111600e-03   6.2756700e-03  -2.2673100e-03
  -1.0389800e-02   6.3642500e-03  -1.9385200e-03
  -1.1021700e-02   6.4181700e-03  -1.5055100e-03
  -1.1022700e-02   6.4301500e-03  -1.0342000e-03
  -1.0392800e-02   6.3983700e-03  -5.9622000e-04
  -9.2156200e-03   6.3267400e-03  -2.5813000e-04
  -7.6615300e-03   6.2233000e-03  -7.1830000e-05
  -6.3518700e-03   6.0829200e-03  -7.7760000e-05
  -5.1858100e-03   5.9581500e-03  -2.5228000e-04
  -4.2952500e-03   5.8636600e-03  -5.7959000e-04
  -3.8152900e-03   5.8082400e-03  -1.0064200e-03
  -3.6546000e-04   6.2498200e-03  -1.4963800e-03
  -6.7657000e-04   6.2944300e-03  -1.9731500e-03
  -1.2543100e-03   6.3955100e-03  -2.3651100e-03
  -2.1216100e-03   6.5585900e-03  -2.5745900e-03
  -2.6056600e-03   6.8799900e-03  -2.7090400e-03
  -6.1114500e-03   6.9177400e-03  -2.4625200e-03
  -8.1548000e-03   6.9619600e-03  -2.0710300e-03
  -9.2172600e-03   6.9933000e-03  -1.5590500e-03
  -9.2185000e-03   7.0074600e-03  -1.0019500e-03
  -8.1583400e-03   7.0022900e-03  -4.8435000e-04
  -6.1167300e-03   6.9782400e-03  -8.2060000e-05
  -2.6120700e-03   6.9534600e-03   1.8158000e-04
  -2.1274600e-03   6.6257100e-03   6.5780000e-05
  -1.2592600e-03   6.4522800e-03  -1.3130000e-04
  -6.7979000e-04   6.3314900e-03  -5.1506000e-04
  -3.6659000e-04   6.2627500e-03  -9.8757000e-04
  -3.6810100e-03   7.6915400e-03  -2.7756100e-03
  -6.1829900e-03   7.7103600e-03  -2.2868000e-03
  -7.5406100e-03   7.7299900e-03  -1.6447000e-03
  -7.5421600e-03   7.7477400e-03  -9.4641000e-04
  -6.1874200e-03   7.7609100e-03  -2.9814000e-04
  -3.6876200e-03   7.7672200e-03   2.0208000e-04
  -5.0416000e-04   7.7632600e-03   4.9923000e-04
  -2.6162400e-03   8.4457800e-03  -3.0869000e-03
  -5.0261500e-03   8.4645800e-03  -2.5008400e-03
  -6.3490100e-03   8.4862900e-03  -1.7306400e-03
  -6.3508700e-03   8.5075600e-03  -8.9373000e-04
  -5.0314400e-03   8.5251500e-03  -1.1757000e-04
  -2.6241400e-03   8.5364300e-03   4.7935000e-04
   1.4780000e-04   8.5405900e-03   8.1919000e-04
  -2.0803600e-03   9.3094100e-03  -3.3019500e-03
  -4.3209000e-03   9.3295800e-03  -2.6508900e-03
  -5.5343400e-03   9.3532600e-03  -1.7963800e-03
  -5.5363900e-03   9.3768400e-03  -8.6851000e-04
  -4.3267700e-03   9.3967400e-03  -8.5300000e-06
  -2.0891200e-03   9.4099200e-03   6.5262000e-04
   7.9949000e-04   9.2959300e-03  -3.6490600e-03
  -4.9628000e-04   7.6728400e-03  -3.0580800e-03
   1.5718000e-04   8.4329900e-03  -3.4142200e-03
   7.8916000e-04   9.4144200e-03   1.0127200e-03
  -1.3765000e-02   4.9254000e-04  -1.6375900e-03
  -1.4171000e-02   4.6911000e-04  -2.5852700e-03
  -1.4922100e-02   4.5185000e-04  -3.3122300e-03
  -1.5902600e-02   4.4341000e-04  -3.7070100e-03
  -1.6962800e-02   4.4506000e-04  -3.7094000e-03
  -1.7940600e-02   4.5656000e-04  -3.3193300e-03
  -1.8687800e-02   4.7614000e-04  -2.5961800e-03
  -1.9092900e-02   5.0084000e-04  -1.6500500e-03
  -1.9095200e-02   5.2690000e-04  -6.2498000e-04
  -1.8694300e-02   5.5034000e-04   3.2296000e-04
  -1.7950300e-02   5.6760000e-04   1.0494800e-03
  -1.6974300e-02   5.7605000e-04   1.4439600e-03
  -1.5914000e-02   5.7439000e-04   1.4463500e-03
  -1.4931800e-02   5.6288000e-04   1.0560000e-03
  -1.4177500e-02   5.4327000e-04   3.3243000e-04
  -1.3767200e-02   5.1857000e-04  -6.1340000e-04
  -1.3960300e-02   9.6765000e-04  -1.5850800e-03
  -1.4320600e-02   9.4874000e-04  -2.4125700e-03
  -1.4989800e-02   9.2874000e-04  -3.0514900e-03
  -1.5862600e-02   9.2071000e-04  -3.3979700e-03
  -1.6806000e-02   9.2226000e-04  -3.4001900e-03
  -1.7676400e-02   9.3235000e-04  -3.0587200e-03
  -1.8341800e-02   9.4951000e-04  -2.4256200e-03
  -1.8702500e-02   9.7115000e-04  -1.5972900e-03
  -1.8704500e-02   9.9396000e-04  -6.9984000e-04
  -1.8347500e-02   1.0144700e-03   1.3011000e-04
  -1.7684900e-02   1.0295700e-03   7.6620000e-04
  -1.6816000e-02   1.0369400e-03   1.1116000e-03
  -1.5872600e-02   1.0353800e-03   1.1136400e-03
  -1.4998300e-02   1.0259000e-03   7.7107000e-04
  -1.4326300e-02   1.0134900e-03   1.3493000e-04
  -1.3962300e-02   9.9038000e-04  -6.9085000e-04
  -1.3790900e-02   1.4810900e-03  -1.5823500e-03
  -1.4151800e-02   1.4643600e-03  -2.3857200e-03
  -1.4868600e-02   1.3134500e-03  -3.0902200e-03
  -1.5767300e-02   1.3086200e-03  -3.4411300e-03
  -1.6739200e-02   1.3101400e-03  -3.4433200e-03
  -1.7635600e-02   1.3204000e-03  -3.0968200e-03
  -1.8320700e-02   1.3378300e-03  -2.4543700e-03
  -1.8692000e-02   1.3598000e-03  -1.6137900e-03
  -1.8694000e-02   1.3829500e-03  -7.0305000e-04
  -1.8326400e-02   1.4037500e-03   1.3919000e-04
  -1.7644200e-02   1.4190500e-03   7.8472000e-04
  -1.6749400e-02   1.4265200e-03   1.1352700e-03
  -1.5777400e-02   1.4250000e-03   1.1374600e-03
  -1.4877200e-02   1.4120900e-03   7.9075000e-04
  -1.4157300e-02   1.5271000e-03   8.2670000e-05
  -1.3792800e-02   1.5030300e-03  -7.1890000e-04
  -1.3858700e-02  -1.4680000e-05  -2.1996000e-03
  -1.3551500e-02   1.8696400e-03  -1.5830200e-03
  -1.3745500e-02   1.4906000e-03  -1.1504900e-03
  -1.4487600e-02  -3.7110000e-05  -3.1220400e-03
  -1.3917400e-02   1.8626800e-03  -2.3712500e-03
  -1.5427900e-02  -5.1280000e-05  -3.7395800e-03
  -1.4674000e-02   1.7446200e-03  -3.0910400e-03
  -1.6536200e-02  -5.5040000e-05  -3.9581800e-03
  -1.5591400e-02   1.7537600e-03  -3.4403500e-03
  -1.7643000e-02  -4.7820000e-05  -3.7445700e-03
  -1.6583800e-02   1.7665900e-03  -3.4428800e-03
  -1.8579400e-02  -3.0720000e-05  -3.1312800e-03
  -1.7499200e-02   1.7844700e-03  -3.0983900e-03
  -1.9205000e-02  -6.3400000e-06  -2.2116600e-03
  -1.8198700e-02   1.8057000e-03  -2.4593600e-03
  -1.9426200e-02   2.1620000e-05  -1.1257400e-03
  -1.8577800e-02   1.8289300e-03  -1.6231400e-03
  -1.9209900e-02   4.8890000e-05  -3.8830000e-05
  -1.8579900e-02   1.8519600e-03  -7.1705000e-04
  -1.8588400e-02   7.1330000e-05   8.8359000e-04
  -1.8204400e-02   1.8712900e-03   1.2095000e-04
  -1.7654700e-02   8.5510000e-05   1.5011100e-03
  -1.7507700e-02   1.8826300e-03   7.6332000e-04
  -1.6548800e-02   8.9280000e-05   1.7197100e-03
  -1.6594000e-02   1.8823700e-03   1.1123200e-03
  -1.5439500e-02   8.2050000e-05   1.5061100e-03
  -1.5601500e-02   1.8695400e-03   1.1148500e-03
  -1.4496500e-02   6.4940000e-05   8.9282000e-04
  -1.4682600e-02   1.8427700e-03   7.7052000e-04
  -1.3863500e-02   4.0550000e-05  -2.6770000e-05
  -1.3922800e-02   1.9242000e-03   4.9020000e-05
  -1.3553400e-02   1.8911500e-03  -7.3692000e-04
  -1.3333700e-02   2.3457900e-03  -1.9693500e-03
  -1.2722800e-02   2.8470400e-03  -1.5653200e-03
  -1.3148100e-02   2.3497800e-03  -1.1710000e-03
  -1.3874800e-02   2.3597000e-03  -2.6607500e-03
  -1.3090400e-02   2.8725100e-03  -2.2737800e-03
  -1.4754300e-02   2.3796800e-03  -3.2254700e-03
  -1.3782800e-02   2.9308900e-03  -2.8338500e-03
  -1.5735400e-02   2.4268800e-03  -3.3977600e-03
  -1.4741800e-02   3.0930200e-03  -3.2134800e-03
  -1.6715600e-02   2.4712600e-03  -3.2321400e-03
  -1.5742000e-02   3.1849900e-03  -3.2180400e-03
  -1.7545200e-02   2.5072500e-03  -2.7538600e-03
  -1.6664600e-02   3.2599700e-03  -2.9144500e-03
  -1.8099400e-02   2.5360600e-03  -2.0359100e-03
  -1.7369600e-02   3.3127900e-03  -2.3491100e-03
  -1.8295100e-02   2.5602800e-03  -1.1877600e-03
  -1.7751600e-02   3.3476100e-03  -1.6083800e-03
  -1.8103100e-02   2.5792000e-03  -3.3862000e-04
  -1.7753400e-02   3.3680200e-03  -8.0528000e-04
  -1.7552200e-02   2.5869600e-03   3.8232000e-04
  -1.7374700e-02   3.3709200e-03  -6.2060000e-05
  -1.6724700e-02   2.5754100e-03   8.6548000e-04
  -1.6672200e-02   3.3469700e-03   5.0836000e-04
  -1.5745300e-02   2.5396200e-03   1.0374700e-03
  -1.5751000e-02   3.2876100e-03   8.1945000e-04
  -1.4763400e-02   2.4838300e-03   8.7215000e-04
  -1.4750800e-02   3.1956400e-03   8.2400000e-04
  -1.3881400e-02   2.4352800e-03   3.1309000e-04
  -1.3790100e-02   3.0145400e-03   4.5734000e-04
  -1.3337200e-02   2.3863300e-03  -3.7432000e-04
  -1.3095300e-02   2.9278600e-03  -9.5960000e-05
  -1.2724500e-02   2.8664800e-03  -8.0058000e-04
  -1.2291300e-02   3.3335400e-03  -1.8881100e-03
  -1.1497600e-02   3.7355700e-03  -1.5267300e-03
  -1.2104100e-02   3.3235200e-03  -1.1934400e-03
  -1.2827400e-02   3.3962200e-03  -2.4795200e-03
  -1.1866900e-02   3.7804000e-03  -2.1276500e-03
  -1.3647200e-02   3.5219600e-03  -2.8988900e-03
  -1.2551800e-02   3.8820900e-03  -2.5912100e-03
  -1.4653500e-02   3.7293100e-03  -3.0957000e-03
  -1.3467800e-02   4.0638400e-03  -2.8692900e-03
  -1.5632700e-02   3.8600300e-03  -2.9576100e-03
  -1.4485400e-02   4.2908900e-03  -2.9026600e-03
  -1.6460500e-02   3.9630900e-03  -2.5531600e-03
  -1.5401800e-02   4.4518500e-03  -2.6531100e-03
  -1.7012700e-02   4.0321700e-03  -1.9441800e-03
  -1.6101300e-02   4.5744100e-03  -2.1853700e-03
  -1.7207400e-02   4.0676000e-03  -1.2236600e-03
  -1.6480000e-02   4.6467700e-03  -1.5708200e-03
  -1.7015900e-02   4.0688400e-03  -5.0141000e-04
  -1.6481400e-02   4.6637400e-03  -9.0316000e-04
  -1.6466400e-02   4.0308400e-03   1.1273000e-04
  -1.6105500e-02   4.6227400e-03  -2.8405000e-04
  -1.5640500e-02   3.9485600e-03   5.2555000e-04
  -1.5408100e-02   4.5241800e-03   1.9241000e-04
  -1.4661900e-02   3.8251300e-03   6.7444000e-04
  -1.4492800e-02   4.3762000e-03   4.5386000e-04
  -1.3654700e-02   3.6081700e-03   4.9288000e-04
  -1.3475100e-02   4.1478600e-03   4.3658000e-04
  -1.2833100e-02   3.4613700e-03   8.4070000e-05
  -1.2557900e-02   3.9523300e-03   1.7215000e-04
  -1.2294400e-02   3.3688000e-03  -5.0101000e-04
  -1.1871000e-02   3.8272900e-03  -2.8261000e-04
  -1.1499000e-02   3.7520400e-03  -8.7883000e-04
  -1.0918600e-02   4.1039700e-03  -1.7928800e-03
  -9.9953900e-03   4.3949900e-03  -1.4897700e-03
  -1.0730500e-02   4.0878600e-03  -1.2098200e-03
  -1.1457100e-02   4.1817100e-03  -2.2896300e-03
  -1.0368300e-02   4.4399400e-03  -1.9975900e-03
  -1.2265900e-02   4.3184900e-03  -2.6262500e-03
  -1.1060600e-02   4.5454000e-03  -2.3889600e-03
  -1.3237000e-02   4.5286000e-03  -2.7645100e-03
  -1.1965200e-02   4.7096400e-03  -2.6059400e-03
  -1.4230700e-02   4.7709800e-03  -2.6702200e-03
  -1.2954000e-02   4.9339000e-03  -2.6222000e-03
  -1.5046100e-02   4.9458200e-03  -2.3397100e-03
  -1.3880500e-02   5.1736200e-03  -2.4280700e-03
  -1.5594200e-02   5.0687200e-03  -1.8400500e-03
  -1.4570000e-02   5.3452600e-03  -2.0412000e-03
  -1.5786100e-02   5.1215300e-03  -1.2473000e-03
  -1.4946000e-02   5.4471700e-03  -1.5314400e-03
  -1.5596900e-02   5.0989200e-03  -6.5179000e-04
  -1.4947200e-02   5.4612700e-03  -9.7635000e-04
  -1.5050900e-02   5.0016200e-03  -1.4411000e-04
  -1.4573500e-02   5.3854400e-03  -4.6042000e-04
  -1.4237100e-02   4.8438900e-03   1.9847000e-04
  -1.3885800e-02   5.2337400e-03  -6.2270000e-05
  -1.3243800e-02   4.6067200e-03   3.0935000e-04
  -1.2960200e-02   5.0043100e-03   1.4788000e-04
  -1.2272100e-02   4.3899800e-03   1.8625000e-04
  -1.1971300e-02   4.7796200e-03   1.4742000e-04
  -1.1461900e-02   4.2363600e-03  -1.3940000e-04
  -1.1065700e-02   4.6046700e-03  -5.6920000e-05
  -1.0921200e-02   4.1335500e-03  -6.2918000e-04
  -1.0371800e-02   4.4795500e-03  -4.3937000e-04
  -9.9966000e-03   4.4089000e-03  -9.4259000e-04
  -9.2776600e-03   4.6890300e-03  -1.7233400e-03
  -8.1408500e-03   4.9481000e-03  -1.4680500e-03
  -9.0841100e-03   4.6758700e-03  -1.2211200e-03
  -9.8325300e-03   4.7576900e-03  -2.1514300e-03
  -8.5408200e-03   4.9841000e-03  -1.9172000e-03
  -1.0666100e-02   4.8861300e-03  -2.4406000e-03
  -9.2845300e-03   5.0742300e-03  -2.2635400e-03
  -1.1641100e-02   5.0673000e-03  -2.5478600e-03
  -1.0253500e-02   5.2193700e-03  -2.4547100e-03
  -1.2614200e-02   5.2871900e-03  -2.4631300e-03
  -1.1283200e-02   5.4020000e-03  -2.4622200e-03
  -1.3438100e-02   5.5022800e-03  -2.1980400e-03
  -1.2225500e-02   5.5953500e-03  -2.2894100e-03
  -1.3982700e-02   5.6526700e-03  -1.7689200e-03
  -1.2961100e-02   5.7704700e-03  -1.9662700e-03
  -1.4170900e-02   5.7143600e-03  -1.2587900e-03
  -1.3344600e-02   5.8761900e-03  -1.5099500e-03
  -1.3985000e-02   5.6786800e-03  -7.4536000e-04
  -1.3345700e-02   5.8888300e-03  -1.0125200e-03
  -1.3442300e-02   5.5503500e-03  -3.0674000e-04
  -1.2964300e-02   5.8064700e-03  -5.4972000e-04
  -1.2619600e-02   5.3490900e-03  -2.7420000e-05
  -1.2230100e-02   5.6480800e-03  -2.1485000e-04
  -1.1646900e-02   5.1339000e-03   7.2680000e-05
  -1.1288600e-02   5.4638600e-03  -2.8270000e-05
  -1.0671500e-02   4.9476300e-03  -2.0920000e-05
  -1.0258900e-02   5.2812100e-03  -2.1930000e-05
  -9.8366500e-03   4.8047700e-03  -2.9949000e-04
  -9.2891000e-03   5.1266600e-03  -2.0118000e-04
  -9.2798900e-03   4.7145100e-03  -7.2108000e-04
  -8.5438800e-03   5.0191200e-03  -5.3920000e-04
  -8.1419200e-03   4.9604000e-03  -9.8416000e-04
  -7.1122100e-03   5.2361600e-03  -1.6880000e-03
  -5.4974400e-03   5.5117000e-03  -1.4635300e-03
  -6.8926400e-03   5.2255500e-03  -1.2302400e-03
  -7.7410900e-03   5.2942700e-03  -2.0784000e-03
  -5.9649900e-03   5.5448900e-03  -1.8890400e-03
  -8.6849700e-03   5.4029500e-03  -2.3424300e-03
  -6.8317400e-03   5.6238700e-03  -2.2183400e-03
  -9.7843900e-03   5.5532300e-03  -2.4400000e-03
  -7.9618100e-03   5.7440000e-03  -2.4000100e-03
  -1.0875000e-02   5.7192100e-03  -2.3563500e-03
  -9.1783100e-03   5.8890500e-03  -2.4100300e-03
  -1.1800400e-02   5.8724400e-03  -2.1049300e-03
  -1.0395300e-02   6.0237400e-03  -2.2398800e-03
  -1.2417800e-02   5.9895900e-03  -1.7231200e-03
  -1.1326000e-02   6.1340200e-03  -1.9194600e-03
  -1.2633100e-02   6.0388800e-03  -1.2636300e-03
  -1.1824000e-02   6.2019000e-03  -1.4965400e-03
  -1.2419800e-02   6.0130200e-03  -8.0128000e-04
  -1.1825000e-02   6.2136100e-03  -1.0357300e-03
  -1.1804100e-02   5.9154900e-03  -4.1129000e-04
  -1.1328900e-02   6.1673700e-03  -6.0770000e-04
  -1.0879900e-02   5.7753300e-03  -1.4831000e-04
  -1.0399600e-02   6.0736100e-03  -2.7796000e-04
  -9.7896800e-03   5.6139400e-03  -5.1510000e-05
  -9.1834300e-03   5.9478700e-03  -9.5810000e-05
  -8.6898600e-03   5.4590200e-03  -1.3644000e-04
  -7.9669200e-03   5.8026400e-03  -9.3060000e-05
  -7.7448400e-03   5.3371800e-03  -3.9042000e-04
  -6.8360700e-03   5.6735600e-03  -2.6339000e-04
  -7.1142300e-03   5.2593800e-03  -7.7458000e-04
  -5.9678900e-03   5.5780500e-03  -5.8440000e-04
  -5.4984500e-03   5.5233400e-03  -1.0056000e-03
  -3.9963200e-03   5.8075800e-03  -1.6935700e-03
  -2.0381600e-03   6.0522900e-03  -1.4815200e-03
  -3.7530800e-03   5.7967300e-03  -1.2378000e-03
  -4.6909100e-03   5.8636600e-03  -2.0849200e-03
  -2.4662100e-03   6.0888100e-03  -1.9318200e-03
  -5.7390500e-03   5.9615800e-03  -2.3526600e-03
  -3.2667900e-03   6.1729200e-03  -2.2897200e-03
  -6.9546900e-03   6.0956100e-03  -2.4550500e-03
  -4.3348300e-03   6.3014200e-03  -2.4861700e-03
  -8.4190500e-03   6.2281400e-03  -2.3785500e-03
  -5.4989500e-03   6.4901400e-03  -2.5360900e-03
  -9.8541400e-03   6.3246800e-03  -2.1198600e-03
  -7.6971000e-03   6.5765300e-03  -2.3443000e-03
  -1.0781400e-02   6.3960200e-03  -1.7311600e-03
  -9.3110700e-03   6.6381100e-03  -1.9896700e-03
  -1.1103100e-02   6.4297000e-03  -1.2701700e-03
  -1.0145900e-02   6.6798400e-03  -1.5265000e-03
  -1.0783400e-02   6.4195200e-03  -8.0665000e-04
  -1.0147000e-02   6.6926400e-03  -1.0226500e-03
  -9.8579400e-03   6.3681300e-03  -4.1073000e-04
  -9.3142500e-03   6.6746000e-03  -5.5426000e-04
  -8.4240200e-03   6.2850100e-03  -1.4111000e-04
  -7.7018800e-03   6.6313000e-03  -1.8981000e-04
  -6.9600200e-03   6.1567000e-03  -5.1490000e-05
  -5.5046100e-03   6.5550000e-03   1.5850000e-05
  -5.7439600e-03   6.0177800e-03  -1.4155000e-04
  -4.3403000e-03   6.3641200e-03  -1.9260000e-05
  -4.6946500e-03   5.9065000e-03  -3.9933000e-04
  -3.2714200e-03   6.2259300e-03  -2.0420000e-04
  -3.9983400e-03   5.8307000e-03  -7.8425000e-04
  -2.4692700e-03   6.1238400e-03  -5.5381000e-04
  -2.0392300e-03   6.0645300e-03  -9.9978000e-04
  -4.8329000e-04   6.2648300e-03  -1.7431200e-03
  -9.3588000e-04   6.3372400e-03  -2.1825700e-03
  -1.5626000e-03   6.4865000e-03  -2.5439500e-03
  -2.2764800e-03   6.6882100e-03  -2.6520400e-03
  -4.5921700e-03   6.9044900e-03  -2.6048500e-03
  -1.2454700e-03   7.2934700e-03  -2.8852000e-03
  -7.2348500e-03   6.9433400e-03  -2.2866500e-03
  -4.6649600e-03   7.3022700e-03  -2.6147900e-03
  -8.8127900e-03   6.9797100e-03  -1.8258800e-03
  -7.0626700e-03   7.3266100e-03  -2.1743500e-03
  -9.3536700e-03   7.0026900e-03  -1.2808600e-03
  -8.3215700e-03   7.3492900e-03  -1.5999300e-03
  -8.8152100e-03   7.0074800e-03  -7.3299000e-04
  -8.3229500e-03   7.3651700e-03  -9.7524000e-04
  -7.2393300e-03   6.9947500e-03  -2.6399000e-04
  -7.0666300e-03   7.3718400e-03  -3.9484000e-04
  -4.5980900e-03   6.9724100e-03   6.7490000e-05
  -4.6708900e-03   7.3701700e-03   5.6880000e-05
  -2.2826500e-03   6.7590700e-03   1.3586000e-04
  -1.5683400e-03   6.5522100e-03   4.1320000e-05
  -9.4003000e-04   6.3848500e-03  -3.0923000e-04
  -4.8552000e-04   6.2902700e-03  -7.4243000e-04
  -2.0848900e-03   7.6792800e-03  -2.9457700e-03
  -5.5500000e-05   8.0643200e-03  -3.2426100e-03
  -5.0451700e-03   7.7008300e-03  -2.5558300e-03
  -3.0167900e-03   8.0822000e-03  -2.9378100e-03
  -7.0240600e-03   7.7202300e-03  -1.9792600e-03
  -5.5169100e-03   8.0999600e-03  -2.3982700e-03
  -7.7152500e-03   7.7392800e-03  -1.2959500e-03
  -6.8823600e-03   8.1201900e-03  -1.6893700e-03
  -7.0271200e-03   7.7550400e-03  -6.0951000e-04
  -6.8840700e-03   8.1397700e-03  -9.1871000e-04
  -5.0507800e-03   7.7651800e-03  -2.3940000e-05
  -5.5217800e-03   8.1557300e-03  -2.0365000e-04
  -2.0922500e-03   7.7638000e-03   3.7971000e-04
  -3.0240700e-03   8.1656900e-03   3.4715000e-04
  -1.2016400e-03   8.4385000e-03  -3.2836100e-03
  -3.9278800e-03   8.4546100e-03  -2.8232900e-03
  -5.8449800e-03   8.4752800e-03  -2.1318700e-03
  -6.5196300e-03   8.4971900e-03  -1.3125700e-03
  -5.8486300e-03   8.5170100e-03  -4.9023000e-04
  -3.9346100e-03   8.5317000e-03   2.0984000e-04
  -1.2104300e-03   8.5393000e-03   6.8244000e-04
  -6.8913000e-04   9.3016500e-03  -3.5186100e-03
  -3.3117500e-03   9.3188400e-03  -3.0093000e-03
  -5.0732800e-03   9.3412000e-03  -2.2416200e-03
  -5.6925500e-03   9.3652900e-03  -1.3328000e-03
  -5.0773100e-03   9.3874700e-03  -4.2119000e-04
  -3.3192100e-03   9.4043300e-03   3.5442000e-04
  -6.9887000e-04   9.4133400e-03   8.7556000e-04
  -2.3770700e-03   8.7461600e-03  -3.2250500e-03
  -4.7142700e-03   8.7659400e-03  -2.5953000e-03
  -5.9938300e-03   8.7890300e-03  -1.7682700e-03
  -5.9958200e-03   8.8118600e-03  -8.6996000e-04
  -4.7199600e-03   8.8309600e-03  -3.7170000e-05
  -2.3855600e-03   8.8434600e-03   6.0312000e-04
   3.6373000e-04   8.7328800e-03  -3.5729500e-03
  -3.2594000e-04   6.2489900e-03  -1.2417000e-03
  -1.2526300e-03   7.3755100e-03   3.4253000e-04
  -6.4160000e-05   8.1636600e-03   6.6559000e-04
   3.5368000e-04   8.8481800e-03   9.6339000e-04
   1.0826900e-03   6.3717600e-03  -1.5094400e-03
   9.2765000e-04   6.4251400e-03  -2.0127500e-03
   6.3107000e-04   6.5404700e-03  -2.4197900e-03
   3.1773000e-04   6.7395300e-03  -2.6737800e-03
   7.9144000e-04   7.0861400e-03  -2.8797800e-03
   7.8424000e-04   7.1684000e-03   3.5667000e-04
   3.1143000e-04   6.8117200e-03   1.6645000e-04
   6.2588000e-04   6.6000500e-03  -7.5710000e-05
   9.2424000e-04   6.4642300e-03  -4.7504000e-04
   1.0815000e-03   6.3853600e-03  -9.7430000e-04
   1.2320200e-03   7.7461100e-03   5.8628000e-04
   1.3254400e-03   8.5406900e-03   8.9741000e-04
   1.2402700e-03   7.6514900e-03  -3.1364600e-03
   1.3351500e-03   8.4292500e-03  -3.4871300e-03
   1.6288400e-03   9.4139900e-03   1.0491900e-03
   1.6393100e-03   9.2937400e-03  -3.6817400e-03
  -1.3919000e-02   4.8026000e-04  -2.1306800e-03
  -1.3639200e-02   1.2590000e-05  -1.1126900e-03
  -1.4509300e-02   4.5951000e-04  -2.9846800e-03
  -1.5392200e-02   4.4640000e-04  -3.5567400e-03
  -1.6432900e-02   4.4294000e-04  -3.7591800e-03
  -1.7472100e-02   4.4964000e-04  -3.5615100e-03
  -1.8351400e-02   4.6549000e-04  -2.9938800e-03
  -1.8938800e-02   4.8807000e-04  -2.1427300e-03
  -1.9146400e-02   5.1395000e-04  -1.1376300e-03
  -1.8943200e-02   5.3919000e-04  -1.3161000e-04
  -1.8359600e-02   5.5994000e-04   7.2218000e-04
  -1.7482900e-02   5.7305000e-04   1.2937700e-03
  -1.6444500e-02   5.7652000e-04   1.4961300e-03
  -1.5403000e-02   5.6981000e-04   1.2983900e-03
  -1.4517500e-02   5.5394000e-04   7.3031000e-04
  -1.3923400e-02   5.3134000e-04  -1.2102000e-04
  -1.3778700e-02   2.3823000e-04  -1.6430300e-03
  -1.4190700e-02   2.1426000e-04  -2.6123100e-03
  -1.4952800e-02   1.9661000e-04  -3.3554500e-03
  -1.5947800e-02   1.8796000e-04  -3.7589900e-03
  -1.7023800e-02   1.8964000e-04  -3.7614300e-03
  -1.8016100e-02   2.0138000e-04  -3.3625100e-03
  -1.8774800e-02   2.2140000e-04  -2.6229700e-03
  -1.9186000e-02   2.4666000e-04  -1.6554100e-03
  -1.9188300e-02   2.7330000e-04  -6.0713000e-04
  -1.8781400e-02   2.9728000e-04   3.6227000e-04
  -1.8026000e-02   3.1494000e-04   1.1052300e-03
  -1.7035500e-02   3.2359000e-04   1.5086200e-03
  -1.5959500e-02   3.2191000e-04   1.5110400e-03
  -1.4962700e-02   3.1016000e-04   1.1119900e-03
  -1.4197300e-02   2.9012000e-04   3.7230000e-04
  -1.3781000e-02   2.6486000e-04  -5.9512000e-04
  -1.3713100e-02   5.0548000e-04  -1.1253800e-03
  -1.4097400e-02   9.5757000e-04  -2.0154800e-03
  -1.4621900e-02   9.3932000e-04  -2.7622400e-03
  -1.5408700e-02   9.2311000e-04  -3.2659000e-03
  -1.6334500e-02   9.2039000e-04  -3.4433000e-03
  -1.7259100e-02   9.2630000e-04  -3.2703300e-03
  -1.8041900e-02   9.4019000e-04  -2.7734900e-03
  -1.8564900e-02   9.5997000e-04  -2.0284600e-03
  -1.8749700e-02   9.8263000e-04  -1.1486700e-03
  -1.8568800e-02   1.0047100e-03  -2.6805000e-04
  -1.8049100e-02   1.0228700e-03   4.7934000e-04
  -1.7268600e-02   1.0343200e-03   9.7970000e-04
  -1.6344700e-02   1.0373100e-03   1.1568400e-03
  -1.5418100e-02   1.0311200e-03   9.8363000e-04
  -1.4629100e-02   1.0218200e-03   4.8329000e-04
  -1.4101300e-02   1.0021600e-03  -2.6110000e-04
  -1.3909100e-02   7.4273000e-04  -1.6026400e-03
  -1.4285000e-02   7.2162000e-04  -2.4733200e-03
  -1.4980800e-02   7.0556000e-04  -3.1416800e-03
  -1.5889200e-02   6.9799000e-04  -3.5046000e-03
  -1.6871500e-02   6.9955000e-04  -3.5068800e-03
  -1.7777600e-02   7.1012000e-04  -3.1484200e-03
  -1.8470400e-02   7.2813000e-04  -2.4838400e-03
  -1.8845900e-02   7.5084000e-04  -1.6143300e-03
  -1.8848000e-02   7.7478000e-04  -6.7226000e-04
  -1.8476300e-02   7.9632000e-04   1.9893000e-04
  -1.7786500e-02   8.1217000e-04   8.6663000e-04
  -1.6882000e-02   8.1992000e-04   1.2291800e-03
  -1.5899700e-02   8.1837000e-04   1.2313200e-03
  -1.4989700e-02   8.0759000e-04   8.7252000e-04
  -1.4290900e-02   7.8975000e-04   2.0730000e-04
  -1.3911200e-02   7.6665000e-04  -6.6166000e-04
  -1.3914700e-02   9.7872000e-04  -1.1378500e-03
  -1.3927400e-02   1.4740100e-03  -1.9983800e-03
  -1.4462800e-02   1.4311500e-03  -2.7422200e-03
  -1.5299400e-02   1.3106000e-03  -3.3075600e-03
  -1.6253400e-02   1.3082300e-03  -3.4875100e-03
  -1.7206200e-02   1.3142400e-03  -3.3119500e-03
  -1.8012200e-02   1.3283500e-03  -2.8076900e-03
  -1.8550700e-02   1.3484400e-03  -2.0515100e-03
  -1.8740900e-02   1.3714500e-03  -1.1585300e-03
  -1.8554600e-02   1.3938600e-03  -2.6470000e-04
  -1.8019500e-02   1.4122700e-03   4.9390000e-04
  -1.7215700e-02   1.4238800e-03   1.0017900e-03
  -1.6263800e-02   1.4269100e-03   1.1816500e-03
  -1.5309000e-02   1.4202400e-03   1.0060400e-03
  -1.4469900e-02   1.5120100e-03   4.3901000e-04
  -1.3931200e-02   1.5170900e-03  -3.0367000e-04
  -1.3922800e-02   1.1934300e-03  -1.5806300e-03
  -1.4279400e-02   1.1757400e-03  -2.3906400e-03
  -1.4952100e-02   1.1285600e-03  -3.0340200e-03
  -1.5823100e-02   1.1176000e-03  -3.3786500e-03
  -1.6763600e-02   1.1192100e-03  -3.3808500e-03
  -1.7631100e-02   1.1292100e-03  -3.0430600e-03
  -1.8294400e-02   1.1462000e-03  -2.4167800e-03
  -1.8653900e-02   1.1676000e-03  -1.5973500e-03
  -1.8655900e-02   1.1901700e-03  -7.0954000e-04
  -1.8300000e-02   1.2104600e-03   1.1150000e-04
  -1.7639500e-02   1.2253800e-03   7.4077000e-04
  -1.6773500e-02   1.2326600e-03   1.0824700e-03
  -1.5833000e-02   1.2310400e-03   1.0845200e-03
  -1.4960500e-02   1.2245800e-03   7.4364000e-04
  -1.4285000e-02   1.2390900e-03   1.0168000e-04
  -1.3924700e-02   1.2156500e-03  -7.0660000e-04
   2.3570200e-03   7.6689000e-03  -3.1498700e-03
   2.3590600e-03   8.4327800e-03  -3.5225500e-03
   2.3513600e-03   6.4124800e-03  -1.5133700e-03
   2.3547800e-03   6.8323900e-03  -2.7389000e-03
   2.3555200e-03   7.1245600e-03  -2.8641500e-03
   2.3483900e-03   7.2061500e-03   3.4604000e-04
   2.3501500e-03   6.4263700e-03  -9.6683000e-04
   2.3507400e-03   6.4094400e-03  -1.2398500e-03
   2.3484400e-03   7.3960700e-03   4.6063000e-04
   2.3489700e-03   8.1676800e-03   7.6476000e-04
   2.3492800e-03   8.8921300e-03   1.1333800e-03
   2.3532000e-03   6.5221200e-03  -2.2508500e-03
   2.3542200e-03   6.6820800e-03  -2.5945400e-03
   2.3550900e-03   6.9492300e-03  -2.7944700e-03
   2.3560900e-03   7.3084100e-03  -2.9882400e-03
   2.3482500e-03   7.0275100e-03   2.8536000e-04
   2.3482500e-03   6.7505500e-03   9.9250000e-05
   2.3487300e-03   6.5733300e-03  -2.3587000e-04
   2.3496100e-03   6.4592000e-03  -7.0296000e-04
   2.3580500e-03   8.0635700e-03  -3.3311700e-03
   2.3600600e-03   8.7683700e-03  -3.7361200e-03
   1.8192300e-02   1.8282900e-03  -1.0883000e-03
   1.8380300e-02   1.8161900e-03  -1.9186100e-03
   1.8931500e-02   1.7870300e-03  -2.6514200e-03
   1.9809800e-02   1.6945600e-03  -3.2285500e-03
   2.0784600e-02   1.7018700e-03  -3.4035100e-03
   2.1756700e-02   1.7144900e-03  -3.2247600e-03
   2.2577600e-02   1.7316200e-03  -2.7195600e-03
   2.3124100e-02   1.7523300e-03  -1.9648600e-03
   2.3314400e-02   1.7752100e-03  -1.0756000e-03
   2.3120200e-02   1.7975200e-03  -1.8718000e-04
   2.2570300e-02   1.8151100e-03   5.6517000e-04
   2.1747200e-02   1.8235700e-03   1.0669500e-03
   2.0774300e-02   1.8199400e-03   1.2418000e-03
   1.9800300e-02   1.8036500e-03   1.0631200e-03
   1.8924600e-02   1.8665800e-03   4.7816000e-04
   1.8376600e-02   1.8584100e-03  -2.5763000e-04
   1.7366000e-02   2.8041600e-03  -1.1149300e-03
   1.7556000e-02   2.8070300e-03  -1.8651200e-03
   1.8096100e-02   2.8484800e-03  -2.5049300e-03
   1.8932700e-02   2.9350100e-03  -2.9733800e-03
   1.9942200e-02   3.0854300e-03  -3.1763900e-03
   2.0922200e-02   3.1674600e-03  -3.0195000e-03
   2.1750100e-02   3.2284600e-03  -2.5726600e-03
   2.2301300e-02   3.2698200e-03  -1.9041700e-03
   2.2493400e-02   3.2966700e-03  -1.1160900e-03
   2.2297800e-02   3.3098700e-03  -3.2853000e-04
   2.1743600e-02   3.3024600e-03   3.3875000e-04
   2.0913800e-02   3.2641500e-03   7.8444000e-04
   1.9933100e-02   3.1900800e-03   9.4096000e-04
   1.8924500e-02   3.0294300e-03   7.4139000e-04
   1.8090000e-02   2.9191200e-03   2.7424000e-04
   1.7552700e-02   2.8451600e-03  -3.6503000e-04
   1.6143300e-02   3.6930300e-03  -1.1402400e-03
   1.6333800e-02   3.7068900e-03  -1.7760200e-03
   1.6873500e-02   3.7788500e-03  -2.3157100e-03
   1.7685900e-02   3.9097300e-03  -2.6842900e-03
   1.8689200e-02   4.1514900e-03  -2.8588200e-03
   1.9665100e-02   4.3211800e-03  -2.7306100e-03
   2.0487000e-02   4.4623200e-03  -2.3611400e-03
   2.1034700e-02   4.5590700e-03  -1.8067900e-03
   2.1225300e-02   4.6034300e-03  -1.1521200e-03
   2.1031800e-02   4.5923700e-03  -4.9689000e-04
   2.0481700e-02   4.5238400e-03   5.9230000e-05
   1.9658100e-02   4.4015500e-03   4.3176000e-04
   1.8681600e-02   4.2384900e-03   5.6410000e-04
   1.7679100e-02   3.9880600e-03   3.9763000e-04
   1.6868300e-02   3.8385300e-03   3.2580000e-05
   1.6331000e-02   3.7391900e-03  -5.0514000e-04
   1.4642800e-02   4.3563500e-03  -1.1604200e-03
   1.4834700e-02   4.3710200e-03  -1.6973800e-03
   1.5379700e-02   4.4444400e-03  -2.1532900e-03
   1.6195900e-02   4.5767700e-03  -2.4590400e-03
   1.7158000e-02   4.7667500e-03  -2.5724500e-03
   1.8154200e-02   5.0217600e-03  -2.4850300e-03
   1.8959700e-02   5.2143400e-03  -2.1794800e-03
   1.9504700e-02   5.3534000e-03  -1.7198800e-03
   1.9692500e-02   5.4113500e-03  -1.1760500e-03
   1.9502300e-02   5.3810800e-03  -6.3081000e-04
   1.8955200e-02   5.2654900e-03  -1.6716000e-04
   1.8148400e-02   5.0885800e-03   1.4421000e-04
   1.7151800e-02   4.8382400e-03   2.4006000e-04
   1.6190200e-02   4.6426300e-03   1.3219000e-04
   1.5375300e-02   4.4948500e-03  -1.7005000e-04
   1.4832300e-02   4.3983000e-03  -6.2406000e-04
   1.2786500e-02   4.9158600e-03  -1.1787600e-03
   1.2991900e-02   4.9265600e-03  -1.6534700e-03
   1.3576400e-02   4.9869800e-03  -2.0563200e-03
   1.4453200e-02   5.1028200e-03  -2.3263600e-03
   1.5474300e-02   5.2663900e-03  -2.4227700e-03
   1.6477600e-02   5.4548300e-03  -2.3329500e-03
   1.7321800e-02   5.6373200e-03  -2.0733800e-03
   1.7902500e-02   5.7861800e-03  -1.6778200e-03
   1.8092600e-02   5.8452900e-03  -1.1906200e-03
   1.7900300e-02   5.8109800e-03  -7.0190000e-04
   1.7317900e-02   5.6823400e-03  -3.0186000e-04
   1.6472600e-02   5.5131800e-03  -3.7100000e-05
   1.5468800e-02   5.3294300e-03   5.7740000e-05
   1.4448200e-02   5.1610700e-03  -3.4760000e-05
   1.3572500e-02   5.0315600e-03  -3.0245000e-04
   1.2989800e-02   4.9506900e-03  -7.0429000e-04
   1.0136200e-02   5.4877100e-03  -1.1991600e-03
   1.0376000e-02   5.4975700e-03  -1.6483800e-03
   1.1058000e-02   5.5515400e-03  -2.0298700e-03
   1.2079600e-02   5.6491700e-03  -2.2858600e-03
   1.3275800e-02   5.7802000e-03  -2.3776300e-03
   1.4525400e-02   5.9186800e-03  -2.2906300e-03
   1.5613700e-02   6.0412700e-03  -2.0358000e-03
   1.6336900e-02   6.1308900e-03  -1.6540200e-03
   1.6589100e-02   6.1706700e-03  -1.2022300e-03
   1.6334900e-02   6.1538600e-03  -7.5011000e-04
   1.5610000e-02   6.0836700e-03  -3.6749000e-04
   1.4520500e-02   5.9740700e-03  -1.1157000e-04
   1.3270500e-02   5.8400500e-03  -2.3190000e-05
   1.2074800e-02   5.7043900e-03  -1.1348000e-04
   1.1054300e-02   5.5937600e-03  -3.6870000e-04
   1.0374100e-02   5.5204000e-03  -7.4997000e-04
   6.6837500e-03   6.0388300e-03  -1.2208200e-03
   6.9037700e-03   6.0502600e-03  -1.6940000e-03
   7.5321400e-03   6.1089100e-03  -2.1007400e-03
   8.4767100e-03   6.2138800e-03  -2.3898900e-03
   9.5778700e-03   6.3612800e-03  -2.4964500e-03
   1.1391300e-02   6.5026200e-03  -2.4202200e-03
   1.3321400e-02   6.5723700e-03  -2.1336700e-03
   1.4534300e-02   6.6241500e-03  -1.7128200e-03
   1.4955100e-02   6.6508100e-03  -1.2180500e-03
   1.4532100e-02   6.6492700e-03  -7.2444000e-04
   1.3317300e-02   6.6188000e-03  -3.0687000e-04
   1.1386000e-02   6.5634800e-03  -2.5700000e-05
   9.5722200e-03   6.4260000e-03   4.9580000e-05
   8.4715300e-03   6.2732400e-03  -5.4230000e-05
   7.5282500e-03   6.1536100e-03  -3.4186000e-04
   6.9016700e-03   6.0743100e-03  -7.4786000e-04
   7.8489200e-03   7.2707700e-03  -2.7409000e-03
   1.0721900e-02   7.2868200e-03  -2.3768300e-03
   1.2551300e-02   7.3067300e-03  -1.8531500e-03
   1.3187400e-02   7.3244700e-03  -1.2390900e-03
   1.2548600e-02   7.3378800e-03  -6.2774000e-04
   1.0716900e-02   7.3443900e-03  -1.1184000e-04
   7.8423100e-03   7.3465300e-03   2.3985000e-04
   6.2617300e-03   8.0630300e-03  -3.1012000e-03
   9.0938800e-03   8.0695500e-03  -2.6646200e-03
   1.1072700e-02   8.0827600e-03  -2.0193900e-03
   1.1765300e-02   8.1008900e-03  -1.2619800e-03
   1.1069300e-02   8.1211800e-03  -5.0769000e-04
   9.0876900e-03   8.1405500e-03   1.2860000e-04
   6.2536300e-03   8.1558900e-03   5.5240000e-04
   5.7089500e-03   8.7281000e-03  -3.4207600e-03
   8.3691200e-03   8.7366600e-03  -2.9146400e-03
   1.0219500e-02   8.7527600e-03  -2.1636200e-03
   1.0868500e-02   8.7741400e-03  -1.2810800e-03
   1.0215600e-02   8.7975500e-03  -4.0147000e-04
   8.3619200e-03   8.8194200e-03   3.4120000e-04
   5.6995200e-03   8.8362800e-03   8.3531000e-04
   3.6801500e-03   6.3870300e-03  -1.7630500e-03
   3.9126200e-03   6.4711000e-03  -2.2243200e-03
   4.2486500e-03   6.6206700e-03  -2.5712400e-03
   4.1807000e-03   6.9171300e-03  -2.7833000e-03
   3.9120200e-03   7.3275300e-03  -2.9651900e-03
   4.1738900e-03   6.9950900e-03   2.8391000e-04
   4.2427600e-03   6.6882400e-03   8.7500000e-05
   3.9082600e-03   6.5212100e-03  -2.5286000e-04
   3.6778200e-03   6.4137900e-03  -7.1030000e-04
   3.4688900e-03   8.0570400e-03  -3.3058100e-03
   3.5991500e-03   6.3665500e-03  -1.2359900e-03
   3.9044700e-03   7.4141600e-03   4.4353000e-04
   3.4599100e-03   8.1599900e-03   7.4469000e-04
   3.2724500e-03   8.8518100e-03   1.0516000e-03
   3.2828500e-03   8.7323500e-03  -3.6483000e-03
   1.8621300e-02   1.7488000e-04  -2.0739000e-03
   1.8407800e-02   2.0133000e-04  -1.0464700e-03
   1.9224100e-02   1.5178000e-04  -2.9442800e-03
   2.0122500e-02   1.3557000e-04  -3.5248800e-03
   2.1179400e-02   1.2873000e-04  -3.7270700e-03
   2.2233000e-02   1.3228000e-04  -3.5201700e-03
   2.3122900e-02   1.4569000e-04  -2.9357300e-03
   2.3715200e-02   1.6692000e-04  -2.0627100e-03
   2.3921500e-02   1.9273000e-04  -1.0340300e-03
   2.3710700e-02   2.1919000e-04  -6.2900000e-06
   2.3114500e-02   2.4227000e-04   8.6404000e-04
   2.2222000e-02   2.5847000e-04   1.4444600e-03
   2.1167500e-02   2.6531000e-04   1.6466100e-03
   2.0111500e-02   2.6176000e-04   1.4396500e-03
   1.9215600e-02   2.4835000e-04   8.5500000e-04
   1.8616800e-02   2.2713000e-04  -1.8090000e-05
   1.8544500e-02   7.0399000e-04  -1.0589400e-03
   1.8739200e-02   6.8047000e-04  -1.9815800e-03
   1.9289200e-02   6.6019000e-04  -2.7636100e-03
   2.0109500e-02   6.4526000e-04  -3.2859700e-03
   2.1074300e-02   6.3917000e-04  -3.4677700e-03
   2.2036300e-02   6.4234000e-04  -3.2818300e-03
   2.2848900e-02   6.5437000e-04  -2.7565900e-03
   2.3389900e-02   6.7344000e-04  -1.9720300e-03
   2.3578200e-02   6.9662000e-04  -1.0476000e-03
   2.3385800e-02   7.2041000e-04  -1.2403000e-04
   2.2841300e-02   7.4116000e-04   6.5808000e-04
   2.2026400e-02   7.5574000e-04   1.1796500e-03
   2.1063600e-02   7.6191000e-04   1.3612500e-03
   2.0099600e-02   7.5865000e-04   1.1751000e-03
   1.9281600e-02   7.4693000e-04   6.4903000e-04
   1.8735200e-02   7.2739000e-04  -1.3544000e-04
   1.8562200e-02   1.1532300e-03  -1.0703200e-03
   1.8746600e-02   1.1335400e-03  -1.9273300e-03
   1.9271800e-02   1.1074400e-03  -2.6610300e-03
   2.0064100e-02   1.0650800e-03  -3.1678300e-03
   2.0988000e-02   1.0591800e-03  -3.3395000e-03
   2.1909100e-02   1.0621800e-03  -3.1642300e-03
   2.2687100e-02   1.0735000e-03  -2.6692100e-03
   2.3205100e-02   1.0914500e-03  -1.9298200e-03
   2.3385500e-02   1.1133000e-03  -1.0586200e-03
   2.3201200e-02   1.1357200e-03  -1.8824000e-04
   2.2680000e-02   1.1552900e-03   5.4881000e-04
   2.1899700e-02   1.1690400e-03   1.0403100e-03
   2.0977900e-02   1.1748500e-03   1.2114200e-03
   2.0054800e-02   1.1719200e-03   1.0355900e-03
   1.9264700e-02   1.1883900e-03   5.2379000e-04
   1.8742800e-02   1.1771200e-03  -2.1261000e-04
   1.8377700e-02  -5.1430000e-05  -1.5942200e-03
   1.8814900e-02  -7.8120000e-05  -2.6164200e-03
   1.9618400e-02  -9.9270000e-05  -3.3977300e-03
   2.0664500e-02  -1.1168000e-04  -3.8191900e-03
   2.1793700e-02  -1.1344000e-04  -3.8166500e-03
   2.2833100e-02  -1.0429000e-04  -3.3904800e-03
   2.3625500e-02  -8.5620000e-05  -2.6055700e-03
   2.4052400e-02  -6.0280000e-05  -1.5814200e-03
   2.4049900e-02  -3.2140000e-05  -4.7393000e-04
   2.3618500e-02  -5.4600000e-06   5.4830000e-04
   2.2822600e-02   1.5680000e-05   1.3296200e-03
   2.1781300e-02   2.8080000e-05   1.7510900e-03
   2.0652100e-02   2.9840000e-05   1.7485500e-03
   1.9607900e-02   2.0700000e-05   1.3223700e-03
   1.8807900e-02   2.0500000e-06   5.3744000e-04
   1.8375200e-02  -2.3280000e-05  -4.8673000e-04
   1.7884600e-02   2.2951200e-03  -1.5076700e-03
   1.8255400e-02   2.3036600e-03  -2.2611300e-03
   1.8971600e-02   2.3036700e-03  -2.8849600e-03
   1.9933600e-02   2.3483200e-03  -3.2736700e-03
   2.0933600e-02   2.3918600e-03  -3.2725600e-03
   2.1854600e-02   2.4294400e-03  -2.9402000e-03
   2.2557000e-02   2.4593100e-03  -2.3272800e-03
   2.2935600e-02   2.4844700e-03  -1.5273000e-03
   2.2933700e-02   2.5064600e-03  -6.6220000e-04
   2.2551600e-02   2.5219300e-03   1.3634000e-04
   2.1846400e-02   2.5231500e-03   7.4687000e-04
   2.0924000e-02   2.5024100e-03   1.0766300e-03
   1.9924000e-02   2.4588700e-03   1.0755200e-03
   1.8963700e-02   2.3944200e-03   6.8532000e-04
   1.8250200e-02   2.3626300e-03   5.9140000e-05
   1.7882800e-02   2.3157900e-03  -6.9455000e-04
   1.6844000e-02   3.2763100e-03  -1.4818900e-03
   1.7215700e-02   3.3123600e-03  -2.1357200e-03
   1.7904600e-02   3.3976100e-03  -2.6417400e-03
   1.8854200e-02   3.6078500e-03  -2.9817700e-03
   1.9854300e-02   3.7424600e-03  -2.9829700e-03
   2.0774200e-02   3.8581000e-03  -2.7022700e-03
   2.1475200e-02   3.9422200e-03  -2.1825300e-03
   2.1852800e-02   3.9932200e-03  -1.5031400e-03
   2.1851200e-02   4.0119100e-03  -7.6776000e-04
   2.1470600e-02   3.9954500e-03  -8.8350000e-05
   2.0767300e-02   3.9377600e-03   4.3189000e-04
   1.9846100e-02   3.8364300e-03   7.1403000e-04
   1.8846000e-02   3.7018100e-03   7.1523000e-04
   1.7897900e-02   3.4744700e-03   3.8212000e-04
   1.7211300e-02   3.3635400e-03  -1.2195000e-04
   1.6842400e-02   3.2942800e-03  -7.7475000e-04
   1.5472900e-02   4.0471300e-03  -1.4475400e-03
   1.5845800e-02   4.0932100e-03  -1.9963300e-03
   1.6534300e-02   4.1980400e-03  -2.4172300e-03
   1.7438900e-02   4.3648300e-03  -2.6529600e-03
   1.8459200e-02   4.6209500e-03  -2.6820900e-03
   1.9367300e-02   4.8103900e-03  -2.4529700e-03
   2.0060600e-02   4.9597900e-03  -2.0266900e-03
   2.0435700e-02   5.0479300e-03  -1.4681900e-03
   2.0434300e-02   5.0633300e-03  -8.6254000e-04
   2.0056800e-02   5.0036300e-03  -3.0194000e-04
   1.9361600e-02   4.8760000e-03   1.2830000e-04
   1.8452500e-02   4.6983400e-03   3.6273000e-04
   1.7432200e-02   4.4409600e-03   3.4213000e-04
   1.6528700e-02   4.2623000e-03   1.1117000e-04
   1.5842100e-02   4.1361500e-03  -3.0691000e-04
   1.5471600e-02   4.0622100e-03  -8.5429000e-04
   1.3829600e-02   4.6400100e-03  -1.4250700e-03
   1.4213000e-02   4.6790500e-03  -1.8975800e-03
   1.4923200e-02   4.7752700e-03  -2.2599800e-03
   1.5847900e-02   4.9285800e-03  -2.4574900e-03
   1.6838100e-02   5.1274400e-03  -2.4628900e-03
   1.7768100e-02   5.3572700e-03  -2.2914200e-03
   1.8451300e-02   5.5362500e-03  -1.9253100e-03
   1.8823800e-02   5.6440800e-03  -1.4449100e-03
   1.8822600e-02   5.6573400e-03  -9.2320000e-04
   1.8448000e-02   5.5740200e-03  -4.3961000e-04
   1.7763200e-02   5.4137800e-03  -6.7910000e-05
   1.6832400e-02   5.1928600e-03   1.1090000e-04
   1.5842200e-02   4.9938700e-03   1.1122000e-04
   1.4918400e-02   4.8306200e-03  -8.2330000e-05
   1.4209800e-02   4.7160300e-03  -4.4252000e-04
   1.3828500e-02   4.6530000e-03  -9.1413000e-04
   1.1646500e-02   5.1961600e-03  -1.4213800e-03
   1.2080500e-02   5.2286300e-03  -1.8517700e-03
   1.2884700e-02   5.3095300e-03  -2.1817200e-03
   1.3930600e-02   5.4381000e-03  -2.3611600e-03
   1.5046600e-02   5.5960200e-03  -2.3632800e-03
   1.6074000e-02   5.7559900e-03  -2.1877700e-03
   1.6858100e-02   5.8932500e-03  -1.8634400e-03
   1.7279900e-02   5.9768700e-03  -1.4309500e-03
   1.7278900e-02   5.9888100e-03  -9.6089000e-04
   1.6855100e-02   5.9272300e-03  -5.2659000e-04
   1.6069600e-02   5.8065400e-03  -1.9917000e-04
   1.5041400e-02   5.6555700e-03  -2.0320000e-05
   1.3925400e-02   5.4976300e-03  -1.9360000e-05
   1.2880300e-02   5.3599900e-03  -1.9666000e-04
   1.2077600e-02   5.2623400e-03  -5.2563000e-04
   1.1645400e-02   5.2080000e-03  -9.5574000e-04
   8.5147700e-03   5.7772300e-03  -1.4419300e-03
   8.9948700e-03   5.8093400e-03  -1.8709800e-03
   9.8857000e-03   5.8842100e-03  -2.2026000e-03
   1.1052200e-02   5.9961900e-03  -2.3831200e-03
   1.2362300e-02   6.1318500e-03  -2.3960700e-03
   1.3916700e-02   6.2395900e-03  -2.2151400e-03
   1.5094100e-02   6.3244900e-03  -1.8810300e-03
   1.5724200e-02   6.3764400e-03  -1.4451800e-03
   1.5723100e-02   6.3884200e-03  -9.7387000e-04
   1.5091200e-02   6.3586100e-03  -5.3874000e-04
   1.3912200e-02   6.2906500e-03  -2.0596000e-04
   1.2357000e-02   6.1920800e-03  -2.6680000e-05
   1.1047000e-02   6.0557800e-03  -3.8520000e-05
   9.8813000e-03   5.9346500e-03  -2.1829000e-04
   8.9919500e-03   5.8429300e-03  -5.4962000e-04
   8.5137500e-03   5.7890100e-03  -9.7861000e-04
   5.0675500e-03   6.2413400e-03  -1.4841200e-03
   5.3809500e-03   6.2849800e-03  -1.9594800e-03
   5.9607700e-03   6.3842500e-03  -2.3488300e-03
   6.8295200e-03   6.5446300e-03  -2.5544000e-03
   7.3151600e-03   6.8645100e-03  -2.6866700e-03
   1.0819900e-02   6.8913200e-03  -2.4243300e-03
   1.2861600e-02   6.9291700e-03  -2.0236200e-03
   1.3921800e-02   6.9572000e-03  -1.5068600e-03
   1.3920600e-02   6.9713600e-03  -9.4976000e-04
   1.2858100e-02   6.9695000e-03  -4.3694000e-04
   1.0814600e-02   6.9518300e-03  -4.3870000e-05
   7.3087500e-03   6.9379800e-03   2.0396000e-04
   6.8236500e-03   6.6117400e-03   8.5970000e-05
   5.9558200e-03   6.4410300e-03  -1.1503000e-04
   5.3777200e-03   6.3220400e-03  -5.0140000e-04
   5.0664300e-03   6.2542700e-03  -9.7531000e-04
   8.3933400e-03   7.6727000e-03  -2.7483800e-03
   1.0893100e-02   7.6837200e-03  -2.2482800e-03
   1.2247900e-02   7.6991200e-03  -1.6000700e-03
   1.2246400e-02   7.7168700e-03  -9.0178000e-04
   1.0888700e-02   7.7342700e-03  -2.5962000e-04
   8.3867400e-03   7.7483800e-03   2.2931000e-04
   5.2020000e-03   7.7543600e-03   5.1210000e-04
   7.3323500e-03   8.4302700e-03  -3.0644600e-03
   9.7396400e-03   8.4415500e-03  -2.4675300e-03
   1.1059100e-02   8.4591400e-03  -1.6913700e-03
   1.1057200e-02   8.4804100e-03  -8.5447000e-04
   9.7343500e-03   8.5021200e-03  -8.4260000e-05
   7.3244600e-03   8.5209100e-03   5.0179000e-04
   4.5510300e-03   8.5337200e-03   8.2912000e-04
   6.8001300e-03   9.2955600e-03  -3.2819200e-03
   9.0377700e-03   9.3087400e-03  -2.6207600e-03
   1.0247400e-02   9.3286400e-03  -1.7607800e-03
   1.0245300e-02   9.3522200e-03  -8.3291000e-04
   9.0319300e-03   9.3759000e-03   2.1600000e-05
   6.7913800e-03   9.3960600e-03   6.7265000e-04
   2.3502200e-03   9.4134400e-03   1.0739300e-03
   3.9218500e-03   9.2910600e-03  -3.6420100e-03
   2.3526100e-03   6.4703600e-03  -2.0270700e-03
   2.3537600e-03   6.5930700e-03  -2.4509700e-03
   2.3481800e-03   6.9080000e-03   2.3579000e-04
   2.3484100e-03   6.6543600e-03  -3.9610000e-05
   2.3491300e-03   6.5102700e-03  -4.5673000e-04
   2.3487000e-03   7.7643100e-03   6.0375000e-04
   2.3491700e-03   8.5461300e-03   9.3714000e-04
   5.2098800e-03   7.6639400e-03  -3.0452100e-03
   4.5604100e-03   8.4261100e-03  -3.4042900e-03
   3.9115200e-03   9.4095500e-03   1.0197600e-03
   2.3608000e-03   9.2920300e-03  -3.7032200e-03
   1.8449500e-02   4.4229000e-04  -1.5649300e-03
   1.8859800e-02   4.1759000e-04  -2.5107600e-03
   1.9614100e-02   3.9798000e-04  -3.2343300e-03
   2.0596300e-02   3.8647000e-04  -3.6246800e-03
   2.1656500e-02   3.8481000e-04  -3.6222900e-03
   2.2632600e-02   3.9326000e-04  -3.2278100e-03
   2.3376600e-02   4.1052000e-04  -2.5013000e-03
   2.3777500e-02   4.3396000e-04  -1.5533500e-03
   2.3775200e-02   4.6002000e-04  -5.2828000e-04
   2.3370200e-02   4.8472000e-04   4.1784000e-04
   2.2622900e-02   5.0430000e-04   1.1409900e-03
   2.1645100e-02   5.1580000e-04   1.5310700e-03
   2.0584900e-02   5.1745000e-04   1.5286800e-03
   1.9604400e-02   5.0901000e-04   1.1339000e-03
