0.045362 0.669416 0.007895 
0.078914 0.652608 -0.025990 
0.102130 0.641794 -0.071629 
0.124708 0.806050 -0.331083 
0.110219 0.637044 -0.124162 
0.079258 0.741902 0.043651 
0.123811 0.816345 0.073968 
0.142636 0.885468 0.104744 
0.143678 0.873523 -0.365247 
-1.393530 0.022567 -0.214733 
-1.372630 0.025146 -0.111895 
-1.453420 0.020444 -0.302042 
-1.543010 0.019104 -0.360507 
-1.648600 0.018748 -0.381203 
-1.754050 0.019433 -0.360988 
-1.843300 0.021052 -0.302946 
-1.902920 0.023360 -0.215913 
-1.924000 0.026006 -0.113139 
-1.903380 0.028587 -0.010271 
-1.844140 0.030710 0.077031 
-1.755150 0.032052 0.135475 
-1.649790 0.032407 0.156165 
-1.544110 0.031722 0.135946 
-1.454260 0.030101 0.077886 
-1.393980 0.027792 -0.009152 
-1.386140 0.075455 -0.113204 
-1.405210 0.073162 -0.205555 
-1.459850 0.071306 -0.284005 
-1.541650 0.070069 -0.336610 
-1.638050 0.069760 -0.355226 
-1.734330 0.070377 -0.337065 
-1.815820 0.071834 -0.284908 
-1.870270 0.073910 -0.206698 
-1.889510 0.076289 -0.114341 
-1.870680 0.078607 -0.021897 
-1.816580 0.080514 0.056558 
-1.735320 0.081717 0.109082 
-1.639120 0.082034 0.127677 
-1.542640 0.081408 0.109497 
-1.460610 0.079980 0.057260 
-1.405610 0.077854 -0.020941 
-1.387770 0.120384 -0.114349 
-1.405820 0.118472 -0.200133 
-1.458010 0.116025 -0.273739 
-1.537030 0.112036 -0.324776 
-1.629350 0.111734 -0.342359 
-1.721530 0.112321 -0.325248 
-1.799550 0.113696 -0.276098 
-1.851680 0.115654 -0.202393 
-1.870100 0.117896 -0.115355 
-1.852070 0.120081 -0.028235 
-1.800270 0.121876 0.045704 
-1.722460 0.123008 0.095206 
-1.630360 0.123301 0.112733 
-1.537970 0.122720 0.095567 
-1.458720 0.124120 0.044743 
-1.406200 0.122830 -0.028660 
-1.369450 -0.000140 -0.166656 
-1.412720 -0.002673 -0.269073 
-1.492720 -0.004538 -0.347565 
-1.597140 -0.005452 -0.390183 
-1.710060 -0.005276 -0.390438 
-1.814190 -0.004036 -0.348291 
-1.893780 -0.001922 -0.270158 
-1.936920 0.000746 -0.167936 
-1.937170 0.003560 -0.057187 
-1.894480 0.006094 0.045229 
-1.815240 0.007961 0.123719 
-1.711300 0.008876 0.166336 
-1.598380 0.008700 0.166591 
-1.493770 0.007459 0.124445 
-1.413420 0.005344 0.046314 
-1.369700 0.002675 -0.055907 
-1.319450 0.234361 -0.157777 
-1.356180 0.235329 -0.233290 
-1.427530 0.235554 -0.295995 
-1.523540 0.240319 -0.335300 
-1.623520 0.244985 -0.335640 
-1.715760 0.249030 -0.302819 
-1.786260 0.252237 -0.241845 
-1.824470 0.254871 -0.162019 
-1.824670 0.257070 -0.075508 
-1.786810 0.258499 0.004517 
-1.716580 0.258402 0.065887 
-1.624490 0.256039 0.099279 
-1.524500 0.251374 0.099619 
-1.428320 0.244628 0.061033 
-1.356700 0.241227 -0.001263 
-1.319630 0.236428 -0.076466 
-1.215100 0.332154 -0.154729 
-1.251970 0.335875 -0.220280 
-1.320590 0.344615 -0.271192 
-1.415340 0.365934 -0.305622 
-1.515300 0.379708 -0.306194 
-1.607380 0.391559 -0.278539 
-1.677690 0.400189 -0.226881 
-1.715740 0.405407 -0.159114 
-1.715900 0.407276 -0.085576 
-1.678150 0.405512 -0.017463 
-1.608080 0.399525 0.034878 
-1.516120 0.389104 0.063506 
-1.416160 0.375330 0.064078 
-1.321260 0.352301 0.031195 
-1.252410 0.340993 -0.018903 
-1.215250 0.333952 -0.084016 
-1.077770 0.408809 -0.150675 
-1.114800 0.413533 -0.205722 
-1.183420 0.424230 -0.248122 
-1.273720 0.441191 -0.272103 
-1.375660 0.467122 -0.275476 
-1.466510 0.486349 -0.252973 
-1.535980 0.501505 -0.210659 
-1.573710 0.510436 -0.154978 
-1.573850 0.511976 -0.094413 
-1.536370 0.505889 -0.038184 
-1.467080 0.492909 0.005154 
-1.376340 0.474860 0.029006 
-1.274380 0.448803 0.027407 
-1.183980 0.430656 0.004718 
-1.115170 0.417827 -0.036779 
-1.077900 0.410317 -0.091350 
-0.913268 0.467583 -0.147687 
-0.951375 0.471606 -0.195110 
-1.022200 0.481450 -0.231670 
-1.114540 0.497069 -0.251837 
-1.213490 0.517264 -0.252824 
-1.306490 0.540537 -0.236096 
-1.374920 0.558649 -0.199794 
-1.412350 0.569548 -0.151923 
-1.412460 0.570874 -0.099752 
-1.375240 0.562425 -0.051224 
-1.306980 0.546188 -0.013745 
-1.214060 0.523806 0.004555 
-1.115110 0.503598 0.005034 
-1.022690 0.486985 -0.013905 
-0.951697 0.475305 -0.049604 
-0.913381 0.468882 -0.096592 
-0.694782 0.522517 -0.146332 
-0.737982 0.525899 -0.189567 
-0.818229 0.534240 -0.222924 
-0.922691 0.547423 -0.241339 
-1.034240 0.563563 -0.242055 
-1.137010 0.579881 -0.224967 
-1.215520 0.593851 -0.192888 
-1.257870 0.602345 -0.149830 
-1.257970 0.603539 -0.102824 
-1.215810 0.597249 -0.059203 
-1.137450 0.584935 -0.026108 
-1.034760 0.569518 -0.007759 
-0.923211 0.553376 -0.007159 
-0.818668 0.539285 -0.024418 
-0.738276 0.529270 -0.056953 
-0.694885 0.523701 -0.099768 
-0.381426 0.579646 -0.146974 
-0.429232 0.583007 -0.190095 
-0.518140 0.590772 -0.223658 
-0.634667 0.602333 -0.242237 
-0.765627 0.616308 -0.244123 
-0.921116 0.627567 -0.226731 
-1.038980 0.636425 -0.193852 
-1.102170 0.641817 -0.150551 
-1.102270 0.643015 -0.103420 
-1.039280 0.639837 -0.059622 
-0.921562 0.632674 -0.025813 
-0.766153 0.622330 -0.007183 
-0.635187 0.608292 -0.007776 
-0.518581 0.595815 -0.025228 
-0.429525 0.586366 -0.057959 
-0.381529 0.580824 -0.100642 
-0.036546 0.624982 -0.149638 
-0.067657 0.629443 -0.197315 
-0.125431 0.639551 -0.236511 
-0.212161 0.655859 -0.257459 
-0.260566 0.687999 -0.270904 
-0.611145 0.691774 -0.246252 
-0.815480 0.696196 -0.207103 
-0.921726 0.699330 -0.155905 
-0.921850 0.700746 -0.100195 
-0.815834 0.700229 -0.048435 
-0.611673 0.697824 -0.008206 
-0.261207 0.695346 0.018158 
-0.212746 0.662571 0.006578 
-0.125926 0.645228 -0.013130 
-0.067979 0.633149 -0.051506 
-0.036659 0.626275 -0.098757 
-0.368101 0.769154 -0.277561 
-0.618299 0.771036 -0.228680 
-0.754061 0.772999 -0.164470 
-0.754216 0.774774 -0.094641 
-0.618742 0.776091 -0.029814 
-0.368762 0.776722 0.020208 
-0.050416 0.776326 0.049923 
-0.261624 0.844578 -0.308690 
-0.502615 0.846458 -0.250084 
-0.634901 0.848629 -0.173064 
-0.635087 0.850756 -0.089373 
-0.503144 0.852515 -0.011757 
-0.262414 0.853643 0.047935 
0.014780 0.854059 0.081919 
-0.208036 0.930941 -0.330195 
-0.432090 0.932958 -0.265089 
-0.553434 0.935326 -0.179638 
-0.553639 0.937684 -0.086851 
-0.432677 0.939674 -0.000853 
-0.208912 0.940992 0.065262 
0.079949 0.929593 -0.364906 
-0.049628 0.767284 -0.305808 
0.015718 0.843299 -0.341422 
0.078916 0.941442 0.101272 
-1.376500 0.049254 -0.163759 
-1.417100 0.046911 -0.258527 
-1.492210 0.045185 -0.331223 
-1.590260 0.044341 -0.370701 
-1.696280 0.044506 -0.370940 
-1.794060 0.045656 -0.331933 
-1.868780 0.047614 -0.259618 
-1.909290 0.050084 -0.165005 
-1.909520 0.052690 -0.062498 
-1.869430 0.055034 0.032296 
-1.795030 0.056760 0.104948 
-1.697430 0.057605 0.144396 
-1.591400 0.057439 0.144635 
-1.493180 0.056288 0.105600 
-1.417750 0.054327 0.033243 
-1.376720 0.051857 -0.061340 
-1.396030 0.096765 -0.158508 
-1.432060 0.094874 -0.241257 
-1.498980 0.092874 -0.305149 
-1.586260 0.092071 -0.339797 
-1.680600 0.092226 -0.340019 
-1.767640 0.093235 -0.305872 
-1.834180 0.094951 -0.242562 
-1.870250 0.097115 -0.159729 
-1.870450 0.099396 -0.069984 
-1.834750 0.101447 0.013011 
-1.768490 0.102957 0.076620 
-1.681600 0.103694 0.111160 
-1.587260 0.103538 0.111364 
-1.499830 0.102590 0.077107 
-1.432630 0.101349 0.013493 
-1.396230 0.099038 -0.069085 
-1.379090 0.148109 -0.158235 
-1.415180 0.146436 -0.238572 
-1.486860 0.131345 -0.309022 
-1.576730 0.130862 -0.344113 
-1.673920 0.131014 -0.344332 
-1.763560 0.132040 -0.309682 
-1.832070 0.133783 -0.245437 
-1.869200 0.135980 -0.161379 
-1.869400 0.138295 -0.070305 
-1.832640 0.140375 0.013919 
-1.764420 0.141905 0.078472 
-1.674940 0.142652 0.113527 
-1.577740 0.142500 0.113746 
-1.487720 0.141209 0.079075 
-1.415730 0.152710 0.008267 
-1.379280 0.150303 -0.071890 
-1.385870 -0.001468 -0.219960 
-1.355150 0.186964 -0.158302 
-1.374550 0.149060 -0.115049 
-1.448760 -0.003711 -0.312204 
-1.391740 0.186268 -0.237125 
-1.542790 -0.005128 -0.373958 
-1.467400 0.174462 -0.309104 
-1.653620 -0.005504 -0.395818 
-1.559140 0.175376 -0.344035 
-1.764300 -0.004782 -0.374457 
-1.658380 0.176659 -0.344288 
-1.857940 -0.003072 -0.313128 
-1.749920 0.178447 -0.309839 
-1.920500 -0.000634 -0.221166 
-1.819870 0.180570 -0.245936 
-1.942620 0.002162 -0.112574 
-1.857780 0.182893 -0.162314 
-1.920990 0.004889 -0.003883 
-1.857990 0.185196 -0.071705 
-1.858840 0.007133 0.088359 
-1.820440 0.187129 0.012095 
-1.765470 0.008551 0.150111 
-1.750770 0.188263 0.076332 
-1.654880 0.008928 0.171971 
-1.659400 0.188237 0.111232 
-1.543950 0.008205 0.150611 
-1.560150 0.186954 0.111485 
-1.449650 0.006494 0.089282 
-1.468260 0.184277 0.077052 
-1.386350 0.004055 -0.002677 
-1.392280 0.192420 0.004902 
-1.355340 0.189115 -0.073692 
-1.333370 0.234579 -0.196935 
-1.272280 0.284704 -0.156532 
-1.314810 0.234978 -0.117100 
-1.387480 0.235970 -0.266075 
-1.309040 0.287251 -0.227378 
-1.475430 0.237968 -0.322547 
-1.378280 0.293089 -0.283385 
-1.573540 0.242688 -0.339776 
-1.474180 0.309302 -0.321348 
-1.671560 0.247126 -0.323214 
-1.574200 0.318499 -0.321804 
-1.754520 0.250725 -0.275386 
-1.666460 0.325997 -0.291445 
-1.809940 0.253606 -0.203591 
-1.736960 0.331279 -0.234911 
-1.829510 0.256028 -0.118776 
-1.775160 0.334761 -0.160838 
-1.810310 0.257920 -0.033862 
-1.775340 0.336802 -0.080528 
-1.755220 0.258696 0.038232 
-1.737470 0.337092 -0.006206 
-1.672470 0.257541 0.086548 
-1.667220 0.334697 0.050836 
-1.574530 0.253962 0.103747 
-1.575100 0.328761 0.081945 
-1.476340 0.248383 0.087215 
-1.475080 0.319564 0.082400 
-1.388140 0.243528 0.031309 
-1.379010 0.301454 0.045734 
-1.333720 0.238633 -0.037432 
-1.309530 0.292786 -0.009596 
-1.272450 0.286648 -0.080058 
-1.229130 0.333354 -0.188811 
-1.149760 0.373557 -0.152673 
-1.210410 0.332352 -0.119344 
-1.282740 0.339622 -0.247952 
-1.186690 0.378040 -0.212765 
-1.364720 0.352196 -0.289889 
-1.255180 0.388209 -0.259121 
-1.465350 0.372931 -0.309570 
-1.346780 0.406384 -0.286929 
-1.563270 0.386003 -0.295761 
-1.448540 0.429089 -0.290266 
-1.646050 0.396309 -0.255316 
-1.540180 0.445185 -0.265311 
-1.701270 0.403217 -0.194418 
-1.610130 0.457441 -0.218537 
-1.720740 0.406760 -0.122366 
-1.648000 0.464677 -0.157082 
-1.701590 0.406884 -0.050141 
-1.648140 0.466374 -0.090316 
-1.646640 0.403084 0.011273 
-1.610550 0.462274 -0.028405 
-1.564050 0.394856 0.052555 
-1.540810 0.452418 0.019241 
-1.466190 0.382513 0.067444 
-1.449280 0.437620 0.045386 
-1.365470 0.360817 0.049288 
-1.347510 0.414786 0.043658 
-1.283310 0.346137 0.008407 
-1.255790 0.395233 0.017215 
-1.229440 0.336880 -0.050101 
-1.187100 0.382729 -0.028261 
-1.149900 0.375204 -0.087883 
-1.091860 0.410397 -0.179288 
-0.999539 0.439499 -0.148977 
-1.073050 0.408786 -0.120982 
-1.145710 0.418171 -0.228963 
-1.036830 0.443994 -0.199759 
-1.226590 0.431849 -0.262625 
-1.106060 0.454540 -0.238896 
-1.323700 0.452860 -0.276451 
-1.196520 0.470964 -0.260594 
-1.423070 0.477098 -0.267022 
-1.295400 0.493390 -0.262220 
-1.504610 0.494582 -0.233971 
-1.388050 0.517362 -0.242807 
-1.559420 0.506872 -0.184005 
-1.457000 0.534526 -0.204120 
-1.578610 0.512153 -0.124730 
-1.494600 0.544717 -0.153144 
-1.559690 0.509892 -0.065179 
-1.494720 0.546127 -0.097635 
-1.505090 0.500162 -0.014411 
-1.457350 0.538544 -0.046042 
-1.423710 0.484389 0.019847 
-1.388580 0.523374 -0.006227 
-1.324380 0.460672 0.030935 
-1.296020 0.500431 0.014788 
-1.227210 0.438998 0.018625 
-1.197130 0.477962 0.014742 
-1.146190 0.423636 -0.013940 
-1.106570 0.460467 -0.005692 
-1.092120 0.413355 -0.062918 
-1.037180 0.447955 -0.043937 
-0.999660 0.440890 -0.094259 
-0.927766 0.468903 -0.172334 
-0.814085 0.494810 -0.146805 
-0.908411 0.467587 -0.122112 
-0.983253 0.475769 -0.215143 
-0.854082 0.498410 -0.191720 
-1.066610 0.488613 -0.244060 
-0.928453 0.507423 -0.226354 
-1.164110 0.506730 -0.254786 
-1.025350 0.521937 -0.245471 
-1.261420 0.528719 -0.246313 
-1.128320 0.540200 -0.246222 
-1.343810 0.550228 -0.219804 
-1.222550 0.559535 -0.228941 
-1.398270 0.565267 -0.176892 
-1.296110 0.577047 -0.196627 
-1.417090 0.571436 -0.125879 
-1.334460 0.587619 -0.150995 
-1.398500 0.567868 -0.074536 
-1.334570 0.588883 -0.101252 
-1.344230 0.555035 -0.030674 
-1.296430 0.580647 -0.054972 
-1.261960 0.534909 -0.002742 
-1.223010 0.564808 -0.021485 
-1.164690 0.513390 0.007268 
-1.128860 0.546386 -0.002827 
-1.067150 0.494763 -0.002092 
-1.025890 0.528121 -0.002193 
-0.983665 0.480477 -0.029949 
-0.928910 0.512666 -0.020118 
-0.927989 0.471451 -0.072108 
-0.854388 0.501912 -0.053920 
-0.814192 0.496040 -0.098416 
-0.711221 0.523616 -0.168800 
-0.549744 0.551170 -0.146353 
-0.689264 0.522555 -0.123024 
-0.774109 0.529427 -0.207840 
-0.596499 0.554489 -0.188904 
-0.868497 0.540295 -0.234243 
-0.683174 0.562387 -0.221834 
-0.978439 0.555323 -0.244000 
-0.796181 0.574400 -0.240001 
-1.087500 0.571921 -0.235635 
-0.917831 0.588905 -0.241003 
-1.180040 0.587244 -0.210493 
-1.039530 0.602374 -0.223988 
-1.241780 0.598959 -0.172312 
-1.132600 0.613402 -0.191946 
-1.263310 0.603888 -0.126363 
-1.182400 0.620190 -0.149654 
-1.241980 0.601302 -0.080128 
-1.182500 0.621361 -0.103573 
-1.180410 0.591549 -0.041129 
-1.132890 0.616737 -0.060770 
-1.087990 0.577533 -0.014831 
-1.039960 0.607361 -0.027796 
-0.978968 0.561394 -0.005151 
-0.918343 0.594787 -0.009581 
-0.868986 0.545902 -0.013644 
-0.796692 0.580264 -0.009306 
-0.774484 0.533718 -0.039042 
-0.683607 0.567356 -0.026339 
-0.711423 0.525938 -0.077458 
-0.596789 0.557805 -0.058440 
-0.549845 0.552334 -0.100560 
-0.399632 0.580758 -0.169357 
-0.203816 0.605229 -0.148152 
-0.375308 0.579673 -0.123780 
-0.469091 0.586366 -0.208492 
-0.246621 0.608881 -0.193182 
-0.573905 0.596158 -0.235266 
-0.326679 0.617292 -0.228972 
-0.695469 0.609561 -0.245505 
-0.433483 0.630142 -0.248617 
-0.841905 0.622814 -0.237855 
-0.549895 0.649014 -0.253609 
-0.985414 0.632468 -0.211986 
-0.769710 0.657653 -0.234430 
-1.078140 0.639602 -0.173116 
-0.931107 0.663811 -0.198967 
-1.110310 0.642970 -0.127017 
-1.014590 0.667984 -0.152650 
-1.078340 0.641952 -0.080665 
-1.014700 0.669264 -0.102265 
-0.985794 0.636813 -0.041073 
-0.931425 0.667460 -0.055426 
-0.842402 0.628501 -0.014111 
-0.770188 0.663130 -0.018981 
-0.696002 0.615670 -0.005149 
-0.550461 0.655500 0.001585 
-0.574396 0.601778 -0.014155 
-0.434030 0.636412 -0.001926 
-0.469465 0.590650 -0.039933 
-0.327142 0.622593 -0.020420 
-0.399834 0.583070 -0.078425 
-0.246927 0.612384 -0.055381 
-0.203923 0.606453 -0.099978 
-0.048329 0.626483 -0.174312 
-0.093588 0.633724 -0.218257 
-0.156260 0.648650 -0.254395 
-0.227648 0.668821 -0.265204 
-0.459217 0.690449 -0.260485 
-0.124547 0.729347 -0.288520 
-0.723485 0.694334 -0.228665 
-0.466496 0.730227 -0.261479 
-0.881279 0.697971 -0.182588 
-0.706267 0.732661 -0.217435 
-0.935367 0.700269 -0.128086 
-0.832157 0.734929 -0.159993 
-0.881521 0.700748 -0.073299 
-0.832295 0.736517 -0.097524 
-0.723933 0.699475 -0.026399 
-0.706663 0.737184 -0.039484 
-0.459809 0.697241 0.006749 
-0.467089 0.737017 0.005688 
-0.228265 0.675907 0.013586 
-0.156834 0.655221 0.004132 
-0.094003 0.638485 -0.030923 
-0.048552 0.629027 -0.074243 
-0.208489 0.767928 -0.294577 
-0.005550 0.806432 -0.324261 
-0.504517 0.770083 -0.255583 
-0.301679 0.808220 -0.293781 
-0.702406 0.772023 -0.197926 
-0.551691 0.809996 -0.239827 
-0.771525 0.773928 -0.129595 
-0.688236 0.812019 -0.168937 
-0.702712 0.775504 -0.060951 
-0.688407 0.813977 -0.091871 
-0.505078 0.776518 -0.002394 
-0.552178 0.815573 -0.020365 
-0.209225 0.776380 0.037971 
-0.302407 0.816569 0.034715 
-0.120164 0.843850 -0.328361 
-0.392788 0.845461 -0.282329 
-0.584498 0.847528 -0.213187 
-0.651963 0.849719 -0.131257 
-0.584863 0.851701 -0.049023 
-0.393461 0.853170 0.020984 
-0.121043 0.853930 0.068244 
-0.068913 0.930165 -0.351861 
-0.331175 0.931884 -0.300930 
-0.507328 0.934120 -0.224162 
-0.569255 0.936529 -0.133280 
-0.507731 0.938747 -0.042119 
-0.331921 0.940433 0.035442 
-0.069887 0.941334 0.087556 
-0.237707 0.874616 -0.322505 
-0.471427 0.876594 -0.259530 
-0.599383 0.878903 -0.176827 
-0.599582 0.881186 -0.086996 
-0.471996 0.883096 -0.003717 
-0.238556 0.884346 0.060312 
0.036373 0.873288 -0.357295 
-0.032594 0.624899 -0.124170 
-0.125263 0.737551 0.034253 
-0.006416 0.816366 0.066559 
0.035368 0.884818 0.096339 
0.108269 0.637176 -0.150944 
0.092765 0.642514 -0.201275 
0.063107 0.654047 -0.241979 
0.031773 0.673953 -0.267378 
0.079144 0.708614 -0.287978 
0.078424 0.716840 0.035667 
0.031143 0.681172 0.016645 
0.062588 0.660005 -0.007571 
0.092424 0.646423 -0.047504 
0.108150 0.638536 -0.097430 
0.123202 0.774611 0.058628 
0.132544 0.854069 0.089741 
0.124027 0.765149 -0.313646 
0.133515 0.842925 -0.348713 
0.162884 0.941399 0.104919 
0.163931 0.929374 -0.368174 
-1.391900 0.048026 -0.213068 
-1.363920 0.001259 -0.111269 
-1.450930 0.045951 -0.298468 
-1.539220 0.044640 -0.355674 
-1.643290 0.044294 -0.375918 
-1.747210 0.044964 -0.356151 
-1.835140 0.046549 -0.299388 
-1.893880 0.048807 -0.214273 
-1.914640 0.051395 -0.113763 
-1.894320 0.053919 -0.013161 
-1.835960 0.055994 0.072218 
-1.748290 0.057305 0.129377 
-1.644450 0.057652 0.149613 
-1.540300 0.056981 0.129839 
-1.451750 0.055394 0.073031 
-1.392340 0.053134 -0.012102 
-1.377870 0.023823 -0.164303 
-1.419070 0.021426 -0.261231 
-1.495280 0.019661 -0.335545 
-1.594780 0.018796 -0.375899 
-1.702380 0.018964 -0.376143 
-1.801610 0.020138 -0.336251 
-1.877480 0.022140 -0.262297 
-1.918600 0.024666 -0.165541 
-1.918830 0.027330 -0.060713 
-1.878140 0.029728 0.036227 
-1.802600 0.031494 0.110523 
-1.703550 0.032359 0.150862 
-1.595950 0.032191 0.151104 
-1.496270 0.031016 0.111199 
-1.419730 0.029012 0.037230 
-1.378100 0.026486 -0.059512 
-1.371310 0.050548 -0.112538 
-1.409740 0.095757 -0.201548 
-1.462190 0.093932 -0.276224 
-1.540870 0.092311 -0.326590 
-1.633450 0.092039 -0.344330 
-1.725910 0.092630 -0.327033 
-1.804190 0.094019 -0.277349 
-1.856490 0.095997 -0.202846 
-1.874970 0.098263 -0.114867 
-1.856880 0.100471 -0.026805 
-1.804910 0.102287 0.047934 
-1.726860 0.103432 0.097970 
-1.634470 0.103731 0.115684 
-1.541810 0.103112 0.098363 
-1.462910 0.102182 0.048329 
-1.410130 0.100216 -0.026110 
-1.390910 0.074273 -0.160264 
-1.428500 0.072162 -0.247332 
-1.498080 0.070556 -0.314168 
-1.588920 0.069799 -0.350460 
-1.687150 0.069955 -0.350688 
-1.777760 0.071012 -0.314842 
-1.847040 0.072813 -0.248384 
-1.884590 0.075084 -0.161433 
-1.884800 0.077478 -0.067226 
-1.847630 0.079632 0.019893 
-1.778650 0.081217 0.086663 
-1.688200 0.081992 0.122918 
-1.589970 0.081837 0.123132 
-1.498970 0.080759 0.087252 
-1.429090 0.078975 0.020730 
-1.391120 0.076665 -0.066166 
-1.391470 0.097872 -0.113785 
-1.392740 0.147401 -0.199838 
-1.446280 0.143115 -0.274222 
-1.529940 0.131060 -0.330756 
-1.625340 0.130823 -0.348751 
-1.720620 0.131424 -0.331195 
-1.801220 0.132835 -0.280769 
-1.855070 0.134844 -0.205151 
-1.874090 0.137145 -0.115853 
-1.855460 0.139386 -0.026470 
-1.801950 0.141227 0.049390 
-1.721570 0.142388 0.100179 
-1.626380 0.142691 0.118165 
-1.530900 0.142024 0.100604 
-1.446990 0.151201 0.043901 
-1.393120 0.151709 -0.030367 
-1.392280 0.119343 -0.158063 
-1.427940 0.117574 -0.239064 
-1.495210 0.112856 -0.303402 
-1.582310 0.111760 -0.337865 
-1.676360 0.111921 -0.338085 
-1.763110 0.112921 -0.304306 
-1.829440 0.114620 -0.241678 
-1.865390 0.116760 -0.159735 
-1.865590 0.119017 -0.070954 
-1.830000 0.121046 0.011150 
-1.763950 0.122538 0.074077 
-1.677350 0.123266 0.108247 
-1.583300 0.123104 0.108452 
-1.496050 0.122458 0.074364 
-1.428500 0.123909 0.010168 
-1.392470 0.121565 -0.070660 
0.235702 0.766890 -0.314987 
0.235906 0.843278 -0.352255 
0.235136 0.641248 -0.151337 
0.235478 0.683239 -0.273890 
0.235552 0.712456 -0.286415 
0.234839 0.720615 0.034604 
0.235015 0.642637 -0.096683 
0.235074 0.640944 -0.123985 
0.234844 0.739607 0.046063 
0.234897 0.816768 0.076476 
0.234928 0.889213 0.113338 
0.235320 0.652212 -0.225085 
0.235422 0.668208 -0.259454 
0.235509 0.694923 -0.279447 
0.235609 0.730841 -0.298824 
0.234825 0.702751 0.028536 
0.234825 0.675055 0.009925 
0.234873 0.657333 -0.023587 
0.234961 0.645920 -0.070296 
0.235805 0.806357 -0.333117 
0.236006 0.876837 -0.373612 
1.819230 0.182829 -0.108830 
1.838030 0.181619 -0.191861 
1.893150 0.178703 -0.265142 
1.980980 0.169456 -0.322855 
2.078460 0.170187 -0.340351 
2.175670 0.171449 -0.322476 
2.257760 0.173162 -0.271956 
2.312410 0.175233 -0.196486 
2.331440 0.177521 -0.107560 
2.312020 0.179752 -0.018718 
2.257030 0.181511 0.056517 
2.174720 0.182357 0.106695 
2.077430 0.181994 0.124180 
1.980030 0.180365 0.106312 
1.892460 0.186658 0.047816 
1.837660 0.185841 -0.025763 
1.736600 0.280416 -0.111493 
1.755600 0.280703 -0.186512 
1.809610 0.284848 -0.250493 
1.893270 0.293501 -0.297338 
1.994220 0.308543 -0.317639 
2.092220 0.316746 -0.301950 
2.175010 0.322846 -0.257266 
2.230130 0.326982 -0.190417 
2.249340 0.329667 -0.111609 
2.229780 0.330987 -0.032853 
2.174360 0.330246 0.033875 
2.091380 0.326415 0.078444 
1.993310 0.319008 0.094096 
1.892450 0.302943 0.074139 
1.809000 0.291912 0.027424 
1.755270 0.284516 -0.036503 
1.614330 0.369303 -0.114024 
1.633380 0.370689 -0.177602 
1.687350 0.377885 -0.231571 
1.768590 0.390973 -0.268429 
1.868920 0.415149 -0.285882 
1.966510 0.432118 -0.273061 
2.048700 0.446232 -0.236114 
2.103470 0.455907 -0.180679 
2.122530 0.460343 -0.115212 
2.103180 0.459237 -0.049689 
2.048170 0.452384 0.005923 
1.965810 0.440155 0.043176 
1.868160 0.423849 0.056410 
1.767910 0.398806 0.039763 
1.686830 0.383853 0.003258 
1.633100 0.373919 -0.050514 
1.464280 0.435635 -0.116042 
1.483470 0.437102 -0.169738 
1.537970 0.444444 -0.215329 
1.619590 0.457677 -0.245904 
1.715800 0.476675 -0.257245 
1.815420 0.502176 -0.248503 
1.895970 0.521434 -0.217948 
1.950470 0.535340 -0.171988 
1.969250 0.541135 -0.117605 
1.950230 0.538108 -0.063081 
1.895520 0.526549 -0.016716 
1.814840 0.508858 0.014421 
1.715180 0.483824 0.024006 
1.619020 0.464263 0.013219 
1.537530 0.449485 -0.017005 
1.483230 0.439830 -0.062406 
1.278650 0.491586 -0.117876 
1.299190 0.492656 -0.165347 
1.357640 0.498698 -0.205632 
1.445320 0.510282 -0.232636 
1.547430 0.526639 -0.242277 
1.647760 0.545483 -0.233295 
1.732180 0.563732 -0.207338 
1.790250 0.578618 -0.167782 
1.809260 0.584529 -0.119062 
1.790030 0.581098 -0.070190 
1.731790 0.568234 -0.030186 
1.647260 0.551318 -0.003710 
1.546880 0.532943 0.005774 
1.444820 0.516107 -0.003476 
1.357250 0.503156 -0.030245 
1.298980 0.495069 -0.070429 
1.013620 0.548771 -0.119916 
1.037600 0.549757 -0.164838 
1.105800 0.555154 -0.202987 
1.207960 0.564917 -0.228586 
1.327580 0.578020 -0.237763 
1.452540 0.591868 -0.229063 
1.561370 0.604127 -0.203580 
1.633690 0.613089 -0.165402 
1.658910 0.617067 -0.120223 
1.633490 0.615386 -0.075011 
1.561000 0.608367 -0.036749 
1.452050 0.597407 -0.011157 
1.327050 0.584005 -0.002319 
1.207480 0.570439 -0.011348 
1.105430 0.559376 -0.036870 
1.037410 0.552040 -0.074997 
0.668375 0.603883 -0.122082 
0.690377 0.605026 -0.169400 
0.753214 0.610891 -0.210074 
0.847671 0.621388 -0.238989 
0.957787 0.636128 -0.249645 
1.139130 0.650262 -0.242022 
1.332140 0.657237 -0.213367 
1.453430 0.662415 -0.171282 
1.495510 0.665081 -0.121805 
1.453210 0.664927 -0.072444 
1.331730 0.661880 -0.030687 
1.138600 0.656348 -0.002570 
0.957222 0.642600 0.004958 
0.847153 0.627324 -0.005423 
0.752825 0.615361 -0.034186 
0.690167 0.607431 -0.074786 
0.784892 0.727077 -0.274090 
1.072190 0.728682 -0.237683 
1.255130 0.730673 -0.185315 
1.318740 0.732447 -0.123909 
1.254860 0.733788 -0.062774 
1.071690 0.734439 -0.011184 
0.784231 0.734653 0.023985 
0.626173 0.806303 -0.310120 
0.909388 0.806955 -0.266462 
1.107270 0.808276 -0.201939 
1.176530 0.810089 -0.126198 
1.106930 0.812118 -0.050769 
0.908769 0.814055 0.012860 
0.625363 0.815589 0.055240 
0.570895 0.872810 -0.342076 
0.836912 0.873666 -0.291464 
1.021950 0.875276 -0.216362 
1.086850 0.877414 -0.128108 
1.021560 0.879755 -0.040147 
0.836192 0.881942 0.034120 
0.569952 0.883628 0.083531 
0.368015 0.638703 -0.176305 
0.391262 0.647110 -0.222432 
0.424865 0.662067 -0.257124 
0.418070 0.691713 -0.278330 
0.391202 0.732753 -0.296519 
0.417389 0.699509 0.028391 
0.424276 0.668824 0.008750 
0.390826 0.652121 -0.025286 
0.367782 0.641379 -0.071030 
0.346889 0.805704 -0.330581 
0.359915 0.636655 -0.123599 
0.390447 0.741416 0.044353 
0.345991 0.815999 0.074469 
0.327245 0.885181 0.105160 
0.328285 0.873235 -0.364830 
1.862130 0.017488 -0.207390 
1.840780 0.020133 -0.104647 
1.922410 0.015178 -0.294428 
2.012250 0.013557 -0.352488 
2.117940 0.012873 -0.372707 
2.223300 0.013228 -0.352017 
2.312290 0.014569 -0.293573 
2.371520 0.016692 -0.206271 
2.392150 0.019273 -0.103403 
2.371070 0.021919 -0.000629 
2.311450 0.024227 0.086404 
2.222200 0.025847 0.144446 
2.116750 0.026531 0.164661 
2.011150 0.026176 0.143965 
1.921560 0.024835 0.085500 
1.861680 0.022713 -0.001809 
1.854450 0.070399 -0.105894 
1.873920 0.068047 -0.198158 
1.928920 0.066019 -0.276361 
2.010950 0.064526 -0.328597 
2.107430 0.063917 -0.346777 
2.203630 0.064234 -0.328183 
2.284890 0.065437 -0.275659 
2.338990 0.067344 -0.197203 
2.357820 0.069662 -0.104760 
2.338580 0.072041 -0.012403 
2.284130 0.074116 0.065808 
2.202640 0.075574 0.117965 
2.106360 0.076191 0.136125 
2.009960 0.075865 0.117510 
1.928160 0.074693 0.064903 
1.873520 0.072739 -0.013544 
1.856220 0.115323 -0.107032 
1.874660 0.113354 -0.192733 
1.927180 0.110744 -0.266103 
2.006410 0.106508 -0.316783 
2.098800 0.105918 -0.333950 
2.190910 0.106218 -0.316423 
2.268710 0.107350 -0.266921 
2.320510 0.109145 -0.192982 
2.338550 0.111330 -0.105862 
2.320120 0.113572 -0.018824 
2.268000 0.115529 0.054881 
2.189970 0.116904 0.104031 
2.097790 0.117485 0.121142 
2.005480 0.117192 0.103559 
1.926470 0.118839 0.052379 
1.874280 0.117712 -0.021261 
1.837770 -0.005143 -0.159422 
1.881490 -0.007812 -0.261642 
1.961840 -0.009927 -0.339773 
2.066450 -0.011168 -0.381919 
2.179370 -0.011344 -0.381665 
2.283310 -0.010429 -0.339048 
2.362550 -0.008562 -0.260557 
2.405240 -0.006028 -0.158142 
2.404990 -0.003214 -0.047393 
2.361850 -0.000546 0.054830 
2.282260 0.001568 0.132962 
2.178130 0.002808 0.175109 
2.065210 0.002984 0.174855 
1.960790 0.002070 0.132237 
1.880790 0.000205 0.053744 
1.837520 -0.002328 -0.048673 
1.788460 0.229512 -0.150767 
1.825540 0.230366 -0.226113 
1.897160 0.230367 -0.288496 
1.993360 0.234832 -0.327367 
2.093360 0.239186 -0.327256 
2.185460 0.242944 -0.294020 
2.255700 0.245931 -0.232728 
2.293560 0.248447 -0.152730 
2.293370 0.250646 -0.066220 
2.255160 0.252193 0.013634 
2.184640 0.252315 0.074687 
2.092400 0.250241 0.107663 
1.992400 0.245887 0.107552 
1.896370 0.239442 0.068532 
1.825020 0.236263 0.005914 
1.788280 0.231579 -0.069455 
1.684400 0.327631 -0.148189 
1.721570 0.331236 -0.213572 
1.790460 0.339761 -0.264174 
1.885420 0.360785 -0.298177 
1.985430 0.374246 -0.298297 
2.077420 0.385810 -0.270227 
2.147520 0.394222 -0.218253 
2.185280 0.399322 -0.150314 
2.185120 0.401191 -0.076776 
2.147060 0.399545 -0.008835 
2.076730 0.393776 0.043189 
1.984610 0.383643 0.071403 
1.884600 0.370181 0.071523 
1.789790 0.347447 0.038212 
1.721130 0.336354 -0.012195 
1.684240 0.329428 -0.077475 
1.547290 0.404713 -0.144754 
1.584580 0.409321 -0.199633 
1.653430 0.419804 -0.241723 
1.743890 0.436483 -0.265296 
1.845920 0.462095 -0.268209 
1.936730 0.481039 -0.245297 
2.006060 0.495979 -0.202669 
2.043570 0.504793 -0.146819 
2.043430 0.506333 -0.086254 
2.005680 0.500363 -0.030194 
1.936160 0.487600 0.012830 
1.845250 0.469834 0.036273 
1.743220 0.444096 0.034213 
1.652870 0.426230 0.011117 
1.584210 0.413615 -0.030691 
1.547160 0.406221 -0.085429 
1.382960 0.464001 -0.142507 
1.421300 0.467905 -0.189758 
1.492320 0.477527 -0.225998 
1.584790 0.492858 -0.245749 
1.683810 0.512744 -0.246289 
1.776810 0.535727 -0.229142 
1.845130 0.553625 -0.192531 
1.882380 0.564408 -0.144491 
1.882260 0.565734 -0.092320 
1.844800 0.557402 -0.043961 
1.776320 0.541378 -0.006791 
1.683240 0.519286 0.011090 
1.584220 0.499387 0.011122 
1.491840 0.483062 -0.008233 
1.420980 0.471603 -0.044252 
1.382850 0.465300 -0.091413 
1.164650 0.519616 -0.142138 
1.208050 0.522863 -0.185177 
1.288470 0.530953 -0.218172 
1.393060 0.543810 -0.236116 
1.504660 0.559602 -0.236328 
1.607400 0.575599 -0.218777 
1.685810 0.589325 -0.186344 
1.727990 0.597687 -0.143095 
1.727890 0.598881 -0.096089 
1.685510 0.592723 -0.052659 
1.606960 0.580654 -0.019917 
1.504140 0.565557 -0.002032 
1.392540 0.549763 -0.001936 
1.288030 0.535999 -0.019666 
1.207760 0.526234 -0.052563 
1.164540 0.520800 -0.095574 
0.851477 0.577723 -0.144193 
0.899487 0.580934 -0.187098 
0.988570 0.588421 -0.220260 
1.105220 0.599619 -0.238312 
1.236230 0.613185 -0.239607 
1.391670 0.623959 -0.221514 
1.509410 0.632449 -0.188103 
1.572420 0.637644 -0.144518 
1.572310 0.638842 -0.097387 
1.509120 0.635861 -0.053874 
1.391220 0.629065 -0.020596 
1.235700 0.619208 -0.002668 
1.104700 0.605578 -0.003852 
0.988130 0.593465 -0.021829 
0.899195 0.584293 -0.054962 
0.851375 0.578901 -0.097861 
0.506755 0.624134 -0.148412 
0.538095 0.628498 -0.195948 
0.596077 0.638425 -0.234883 
0.682952 0.654463 -0.255440 
0.731516 0.686451 -0.268667 
1.081990 0.689132 -0.242433 
1.286160 0.692917 -0.202362 
1.392180 0.695720 -0.150686 
1.392060 0.697136 -0.094976 
1.285810 0.696950 -0.043694 
1.081460 0.695183 -0.004387 
0.730875 0.693798 0.020396 
0.682365 0.661174 0.008597 
0.595582 0.644103 -0.011503 
0.537772 0.632204 -0.050140 
0.506643 0.625427 -0.097531 
0.839334 0.767270 -0.274838 
1.089310 0.768372 -0.224828 
1.224790 0.769912 -0.160007 
1.224640 0.771687 -0.090178 
1.088870 0.773427 -0.025962 
0.838674 0.774838 0.022931 
0.520200 0.775436 0.051210 
0.733235 0.843027 -0.306446 
0.973964 0.844155 -0.246753 
1.105910 0.845914 -0.169137 
1.105720 0.848041 -0.085447 
0.973435 0.850212 -0.008426 
0.732446 0.852091 0.050179 
0.455103 0.853372 0.082912 
0.680013 0.929556 -0.328192 
0.903777 0.930874 -0.262076 
1.024740 0.932864 -0.176078 
1.024530 0.935222 -0.083291 
0.903193 0.937590 0.002160 
0.679138 0.939606 0.067265 
0.235022 0.941344 0.107393 
0.392185 0.929106 -0.364201 
0.235261 0.647036 -0.202707 
0.235376 0.659307 -0.245097 
0.234818 0.690800 0.023579 
0.234841 0.665436 -0.003961 
0.234913 0.651027 -0.045673 
0.234870 0.776431 0.060375 
0.234917 0.854613 0.093714 
0.520988 0.766394 -0.304521 
0.456041 0.842611 -0.340429 
0.391152 0.940955 0.101976 
0.236080 0.929203 -0.370322 
1.844950 0.044229 -0.156493 
1.885980 0.041759 -0.251076 
1.961410 0.039798 -0.323433 
2.059630 0.038647 -0.362468 
2.165650 0.038481 -0.362229 
2.263260 0.039326 -0.322781 
2.337660 0.041052 -0.250130 
2.377750 0.043396 -0.155335 
2.377520 0.046002 -0.052828 
2.337020 0.048472 0.041784 
2.262290 0.050430 0.114099 
2.164510 0.051580 0.153107 
2.058490 0.051745 0.152868 
1.960440 0.050901 0.113390 
1.885330 0.049174 0.040694 
1.844730 0.046832 -0.054074 
1.864620 0.091679 -0.151153 
1.901010 0.089675 -0.233739 
1.968210 0.087465 -0.297328 
2.055640 0.086389 -0.331582 
2.149990 0.086250 -0.331378 
2.236870 0.086988 -0.296839 
2.303130 0.088497 -0.233230 
2.338830 0.090549 -0.150235 
2.338640 0.092830 -0.060490 
2.302570 0.094993 0.022343 
2.236020 0.096710 0.085653 
2.148990 0.097718 0.119800 
2.054640 0.097856 0.119578 
1.967370 0.097181 0.084927 
1.900450 0.096150 0.021011 
1.864420 0.093952 -0.061730 
1.847830 0.143074 -0.150957 
1.884280 0.141289 -0.231130 
1.956230 0.125974 -0.301256 
2.046250 0.125210 -0.335941 
2.143450 0.125059 -0.335721 
2.232930 0.125805 -0.300667 
2.301150 0.127335 -0.236114 
2.337900 0.129416 -0.151890 
2.337700 0.131731 -0.060816 
2.300570 0.133928 0.023242 
2.232070 0.135671 0.087487 
2.142430 0.136697 0.122137 
2.045240 0.136848 0.121918 
1.955370 0.135838 0.086841 
1.883730 0.147563 0.015709 
1.847640 0.145269 -0.064612 
1.854420 -0.006523 -0.212651 
1.824010 0.182005 -0.151131 
1.843100 0.144040 -0.107791 
1.917720 -0.008962 -0.304611 
1.860960 0.181194 -0.229788 
2.012020 -0.010673 -0.365939 
1.936910 0.169152 -0.301426 
2.122950 -0.011396 -0.387299 
2.028810 0.169778 -0.335942 
2.233540 -0.011019 -0.365440 
2.128050 0.170751 -0.335747 
2.326910 -0.009601 -0.303688 
2.219430 0.172255 -0.300886 
2.389060 -0.007357 -0.211446 
2.289100 0.174160 -0.236668 
2.410690 -0.004630 -0.102755 
2.326640 0.176365 -0.152875 
2.388570 -0.001834 0.005838 
2.326440 0.178668 -0.062267 
2.326020 0.000604 0.097799 
2.288530 0.180719 0.021363 
2.232370 0.002314 0.159129 
2.218570 0.182071 0.085285 
2.121690 0.003036 0.180489 
2.127040 0.182330 0.119773 
2.010860 0.002660 0.158629 
2.027800 0.181357 0.119578 
1.916830 0.001243 0.096876 
1.936050 0.178967 0.084731 
1.853940 -0.001000 0.004632 
1.860420 0.187345 0.012239 
1.823830 0.184155 -0.066521 
1.802550 0.229686 -0.189861 
1.741440 0.280003 -0.149734 
1.783640 0.230144 -0.110111 
1.856980 0.230908 -0.258757 
1.778530 0.282435 -0.220414 
1.945190 0.232632 -0.314831 
1.848040 0.288056 -0.276107 
2.043390 0.237046 -0.331617 
1.944160 0.303969 -0.313638 
2.141350 0.241177 -0.314613 
2.044210 0.312854 -0.313642 
2.224100 0.244518 -0.266412 
2.136350 0.320065 -0.282867 
2.279200 0.247227 -0.194367 
2.206620 0.325126 -0.226015 
2.298400 0.249588 -0.109465 
2.244490 0.328490 -0.151771 
2.278830 0.251541 -0.024639 
2.244310 0.330531 -0.071461 
2.223410 0.252489 0.047206 
2.206110 0.330939 0.002690 
2.140450 0.251593 0.095148 
2.135590 0.328765 0.059414 
2.042410 0.248319 0.111906 
2.043310 0.323116 0.090106 
1.944280 0.243047 0.094931 
1.943260 0.314231 0.090110 
1.856320 0.238467 0.038627 
1.847310 0.296421 0.053012 
1.802200 0.233741 -0.030358 
1.778050 0.287970 -0.002631 
1.741270 0.281946 -0.073260 
1.698590 0.328787 -0.182207 
1.619180 0.369237 -0.146427 
1.679550 0.327844 -0.112825 
1.752490 0.334886 -0.241106 
1.656400 0.373604 -0.206352 
1.834690 0.347205 -0.282673 
1.725120 0.383560 -0.252398 
1.935470 0.367626 -0.301899 
1.816900 0.401448 -0.279793 
2.033370 0.380392 -0.287648 
1.918750 0.423836 -0.282670 
2.116000 0.390440 -0.246831 
2.010330 0.439646 -0.257303 
2.170960 0.397176 -0.185684 
2.080110 0.451684 -0.210213 
2.190120 0.400660 -0.113545 
2.117720 0.458803 -0.148588 
2.170640 0.400843 -0.041407 
2.117570 0.460500 -0.081822 
2.115410 0.397216 0.019758 
2.079690 0.456517 -0.020082 
2.032600 0.389245 0.060667 
2.009700 0.446879 0.027249 
1.934640 0.377208 0.075115 
1.918010 0.432367 0.052982 
1.833940 0.355826 0.056505 
1.816170 0.409851 0.050794 
1.751920 0.341402 0.015254 
1.724510 0.390583 0.023937 
1.698280 0.332312 -0.043497 
1.655990 0.378294 -0.021848 
1.619030 0.370884 -0.081638 
1.561520 0.406258 -0.173303 
1.469150 0.435648 -0.143408 
1.542440 0.404705 -0.115083 
1.615620 0.413863 -0.222735 
1.506690 0.440026 -0.194022 
1.696690 0.427289 -0.256032 
1.576120 0.450356 -0.232847 
1.793920 0.447996 -0.269419 
1.666740 0.466497 -0.254135 
1.893330 0.471924 -0.259542 
1.765690 0.488615 -0.255315 
1.974770 0.489153 -0.226123 
1.858330 0.512297 -0.235485 
2.029400 0.501273 -0.175910 
1.927150 0.529246 -0.196486 
2.048330 0.506495 -0.116549 
1.964550 0.539320 -0.145342 
2.029140 0.504294 -0.057085 
1.964430 0.540731 -0.089832 
1.974280 0.494734 -0.006563 
1.926800 0.533264 -0.038408 
1.892690 0.479215 0.027327 
1.857800 0.518310 0.001095 
1.793240 0.455809 0.037967 
1.765080 0.495655 0.021693 
1.696070 0.434437 0.025218 
1.666130 0.473496 0.021200 
1.615140 0.419328 -0.007712 
1.575600 0.456283 0.000358 
1.561260 0.409215 -0.056933 
1.506340 0.443987 -0.038199 
1.469030 0.437038 -0.088691 
1.397580 0.465275 -0.167089 
1.283860 0.491537 -0.142073 
1.377990 0.464020 -0.116955 
1.453280 0.471968 -0.209647 
1.324070 0.495012 -0.186807 
1.536810 0.484552 -0.238187 
1.398630 0.503793 -0.221105 
1.634410 0.502364 -0.248474 
1.495660 0.518005 -0.239785 
1.731750 0.524049 -0.239562 
1.598690 0.535946 -0.240071 
1.814080 0.545301 -0.212681 
1.692900 0.554987 -0.222365 
1.868400 0.560171 -0.169524 
1.766370 0.572269 -0.189719 
1.887010 0.566281 -0.118426 
1.804540 0.582722 -0.143914 
1.868180 0.562772 -0.067167 
1.804430 0.583986 -0.094172 
1.813660 0.550108 -0.023551 
1.766050 0.575870 -0.048065 
1.731210 0.530240 0.004010 
1.692440 0.560259 -0.014909 
1.633830 0.509024 0.013581 
1.598150 0.542132 0.003324 
1.536270 0.490702 0.003780 
1.495120 0.524188 0.003494 
1.452870 0.476675 -0.024453 
1.398170 0.509035 -0.014869 
1.397360 0.467823 -0.066863 
1.323770 0.498514 -0.049007 
1.283760 0.492767 -0.093684 
1.181190 0.520664 -0.164531 
1.019700 0.548722 -0.142813 
1.159020 0.519671 -0.118855 
1.244270 0.526278 -0.203288 
1.066660 0.551895 -0.185153 
1.338810 0.536852 -0.229264 
1.153500 0.559522 -0.217691 
1.448840 0.551536 -0.238525 
1.266630 0.571182 -0.235348 
1.557910 0.567794 -0.229667 
1.388330 0.585307 -0.235802 
1.650390 0.582829 -0.204108 
1.509990 0.598397 -0.218238 
1.711990 0.594351 -0.165649 
1.602950 0.609135 -0.185775 
1.733330 0.599214 -0.119604 
1.652580 0.615767 -0.143259 
1.711790 0.596694 -0.073466 
1.652470 0.616938 -0.097178 
1.650010 0.587133 -0.034744 
1.602660 0.612469 -0.054600 
1.557420 0.573405 -0.008864 
1.509550 0.603383 -0.022046 
1.448310 0.557607 0.000324 
1.387810 0.591190 -0.004379 
1.338320 0.542458 -0.008665 
1.266120 0.577046 -0.004653 
1.243900 0.530569 -0.034490 
1.153070 0.564491 -0.022196 
1.180990 0.522986 -0.073189 
1.066370 0.555211 -0.054689 
1.019600 0.549886 -0.097020 
0.869788 0.578778 -0.166494 
0.673955 0.603859 -0.146172 
0.845256 0.577770 -0.121027 
0.939440 0.584169 -0.205315 
0.716974 0.607378 -0.191009 
1.044400 0.593634 -0.231616 
0.797219 0.615539 -0.226437 
1.166050 0.606657 -0.241306 
0.904150 0.628055 -0.245600 
1.312490 0.619453 -0.232996 
1.020640 0.646564 -0.250066 
1.455910 0.628660 -0.206479 
1.240390 0.654518 -0.229896 
1.548480 0.635504 -0.167192 
1.401650 0.660172 -0.193705 
1.580450 0.638772 -0.120948 
1.484930 0.664084 -0.147012 
1.548280 0.637854 -0.074740 
1.484820 0.665365 -0.096627 
1.455530 0.633004 -0.035567 
1.401330 0.663821 -0.050164 
1.312000 0.625140 -0.009251 
1.239920 0.659994 -0.014447 
1.165520 0.612766 -0.000950 
1.020070 0.653050 0.005127 
1.043910 0.599254 -0.010505 
0.903601 0.634326 0.001091 
0.939066 0.588453 -0.036756 
0.796757 0.620839 -0.017885 
0.869586 0.581089 -0.075562 
0.716669 0.610880 -0.053208 
0.673849 0.605083 -0.097998 
0.518655 0.625599 -0.173033 
0.564133 0.632698 -0.216774 
0.627014 0.647429 -0.252628 
0.698513 0.667376 -0.263115 
0.930125 0.688281 -0.257352 
0.595709 0.728223 -0.286896 
1.194260 0.691342 -0.224339 
0.937532 0.728036 -0.258312 
1.351850 0.694487 -0.177551 
1.177110 0.729722 -0.213187 
1.405700 0.696617 -0.122806 
1.302740 0.731598 -0.155178 
1.351610 0.697265 -0.068262 
1.302610 0.733186 -0.092709 
1.193810 0.696483 -0.022073 
1.176710 0.734246 -0.035236 
0.929532 0.695074 0.009883 
0.936940 0.734827 0.008855 
0.697894 0.674462 0.015675 
0.626441 0.653999 0.005898 
0.563718 0.637459 -0.029440 
0.518434 0.628142 -0.072964 
0.679797 0.766542 -0.292573 
0.477116 0.805679 -0.323173 
0.975652 0.767774 -0.252244 
0.773108 0.806543 -0.291356 
1.173280 0.769097 -0.193695 
1.022880 0.807540 -0.236276 
1.242100 0.770787 -0.125053 
1.159110 0.809137 -0.164770 
1.172980 0.772578 -0.056720 
1.158940 0.811096 -0.087704 
0.975091 0.774209 0.000945 
1.022390 0.813118 -0.016814 
0.679060 0.774994 0.039974 
0.772381 0.814892 0.037140 
0.591864 0.842739 -0.326755 
0.864281 0.843499 -0.279494 
1.055680 0.844969 -0.209488 
1.122780 0.846951 -0.127254 
1.055320 0.849142 -0.045323 
0.863610 0.851209 0.023819 
0.590986 0.852819 0.069850 
0.540988 0.929214 -0.350486 
0.803023 0.930114 -0.298371 
0.978833 0.931801 -0.220810 
1.040360 0.934018 -0.129649 
0.978429 0.936428 -0.038767 
0.802279 0.938664 0.038000 
0.540015 0.940382 0.088932 
0.709475 0.873138 -0.320368 
0.942913 0.874388 -0.256339 
1.070500 0.876297 -0.173060 
1.070300 0.878581 -0.083229 
0.942346 0.880889 -0.000526 
0.708627 0.882868 0.062449 
0.435551 0.872665 -0.356394 
0.235199 0.643186 -0.177856 
0.502688 0.624064 -0.122962 
0.594994 0.736427 0.035878 
0.476250 0.815613 0.067648 
0.434546 0.884195 0.097239 
0.361986 0.636780 -0.150372 
0.377733 0.642069 -0.200632 
0.407611 0.653509 -0.241202 
0.439123 0.673317 -0.266459 
0.391954 0.708126 -0.287272 
0.391237 0.716352 0.036373 
0.438492 0.680536 0.017564 
0.407092 0.659467 -0.006794 
0.377392 0.645978 -0.046862 
0.361867 0.638140 -0.096858 
0.346538 0.774262 0.059132 
0.337306 0.853750 0.090203 
0.347363 0.764800 -0.313142 
0.338277 0.842605 -0.348251 
0.307171 0.941173 0.105245 
0.308218 0.929149 -0.367849 
1.860570 0.042952 -0.205731 
1.831990 -0.003727 -0.104060 
1.919980 0.040692 -0.290865 
2.008530 0.039105 -0.347672 
2.112680 0.038434 -0.367446 
2.216520 0.038781 -0.347210 
2.304190 0.040092 -0.290051 
2.362550 0.042167 -0.204672 
2.382870 0.044691 -0.104070 
2.362110 0.047279 -0.003560 
2.303370 0.049537 0.081555 
2.215440 0.051122 0.138317 
2.111520 0.051792 0.158085 
2.007450 0.051446 0.137841 
1.919160 0.050135 0.080635 
1.860130 0.048060 -0.004765 
1.846250 0.018793 -0.157030 
1.887880 0.016267 -0.253772 
1.964420 0.014264 -0.327741 
2.064100 0.013088 -0.367646 
2.171690 0.012920 -0.367404 
2.270750 0.013785 -0.327065 
2.346290 0.015551 -0.252770 
2.386980 0.017949 -0.155829 
2.386750 0.020613 -0.051001 
2.345630 0.023139 0.045755 
2.269760 0.025141 0.119708 
2.170520 0.026315 0.159601 
2.062930 0.026483 0.159357 
1.963430 0.025619 0.119003 
1.887220 0.023853 0.044689 
1.846020 0.021457 -0.052239 
1.839530 0.045538 -0.105295 
1.878510 0.090627 -0.194131 
1.931290 0.088638 -0.268570 
2.010190 0.086772 -0.318580 
2.102850 0.086210 -0.335902 
2.195240 0.086513 -0.318188 
2.273290 0.087658 -0.268152 
2.325260 0.089473 -0.193414 
2.343350 0.091682 -0.105352 
2.324870 0.093948 -0.017372 
2.272570 0.095926 0.057131 
2.194300 0.097315 0.106814 
2.101830 0.097902 0.124111 
2.009250 0.097573 0.106373 
1.930570 0.096888 0.055984 
1.878130 0.095087 -0.018693 
1.859430 0.069202 -0.152932 
1.897400 0.066973 -0.239830 
1.967280 0.065150 -0.306351 
2.058280 0.064110 -0.342233 
2.156510 0.063959 -0.342018 
2.246960 0.064733 -0.305764 
2.315940 0.066319 -0.238994 
2.353110 0.068473 -0.151874 
2.352900 0.070867 -0.057668 
2.315350 0.073138 0.029283 
2.246080 0.074939 0.095741 
2.155460 0.075996 0.131588 
2.057230 0.076147 0.131359 
1.966390 0.075353 0.095069 
1.896810 0.073787 0.028232 
1.859220 0.071594 -0.058834 
1.859850 0.092799 -0.106452 
1.861670 0.142324 -0.192497 
1.915530 0.137870 -0.266639 
1.999410 0.125554 -0.322795 
2.094880 0.125020 -0.340360 
2.190080 0.125323 -0.322374 
2.270460 0.126484 -0.271585 
2.323970 0.128325 -0.195725 
2.342600 0.130566 -0.106342 
2.323570 0.132866 -0.017044 
2.269730 0.134875 0.058575 
2.189130 0.136287 0.109000 
2.093850 0.136888 0.126556 
1.998450 0.136518 0.108565 
1.914830 0.145956 0.051484 
1.861290 0.146632 -0.023026 
1.860930 0.114268 -0.150725 
1.896950 0.112387 -0.231565 
1.964500 0.107459 -0.295599 
2.051740 0.106090 -0.329668 
2.145790 0.105959 -0.329464 
2.232400 0.106688 -0.295294 
2.298450 0.108180 -0.232367 
2.334030 0.110209 -0.150263 
2.333840 0.112466 -0.061482 
2.297890 0.114606 0.020461 
2.231560 0.116305 0.083089 
2.144800 0.117303 0.116868 
2.050750 0.117435 0.116649 
1.963660 0.117060 0.082168 
1.896400 0.118722 0.017668 
1.860730 0.116490 -0.063322 
-0.233879 0.896352 -0.328915 
-0.361856 0.897301 -0.299718 
-0.092628 0.895572 -0.350598 
-0.467726 0.898380 -0.263991 
-0.546701 0.899545 -0.223157 
-0.595217 0.900753 -0.178747 
-0.611759 0.901955 -0.132495 
-0.595421 0.903106 -0.086169 
-0.547105 0.904162 -0.041541 
-0.468311 0.905081 -0.000352 
-0.362602 0.905830 0.035853 
-0.234755 0.906381 0.065627 
-0.093600 0.906719 0.087947 
0.149108 0.906857 0.108823 
0.050560 0.894993 -0.364274 
0.150170 0.894677 -0.370379 
0.049527 0.906852 0.102269 
0.234951 0.906873 0.114925 
0.236039 0.894393 -0.376094 
0.705742 0.894887 -0.326796 
0.833591 0.895436 -0.297022 
0.564590 0.894548 -0.349115 
0.939301 0.896185 -0.260817 
1.018090 0.897105 -0.219628 
1.066410 0.898160 -0.174999 
1.082750 0.899311 -0.128673 
1.066210 0.900514 -0.082421 
1.017690 0.901721 -0.038011 
0.938717 0.902886 0.002822 
0.832848 0.903965 0.038550 
0.704870 0.904914 0.067746 
0.563619 0.905694 0.089429 
0.320821 0.906589 0.109210 
0.421463 0.894415 -0.363437 
0.321883 0.894409 -0.369991 
0.420431 0.906273 0.103105 
-0.352331 0.913706 -0.301864 
-0.534620 0.915967 -0.224494 
-0.598744 0.918399 -0.132885 
-0.535027 0.920632 -0.040987 
-0.353082 0.922325 0.037205 
-0.085010 0.923227 0.089791 
0.062226 0.923349 0.103948 
0.236063 0.910883 -0.375520 
0.697468 0.911312 -0.329283 
0.556053 0.910968 -0.351796 
0.928381 0.912633 -0.262626 
1.053650 0.914633 -0.175926 
1.053440 0.917010 -0.082389 
0.927793 0.919403 0.003745 
0.696586 0.921444 0.069359 
0.314911 0.923081 0.109497 
0.408816 0.910846 -0.365953 
0.315976 0.910865 -0.371142 
-0.225542 0.912752 -0.331365 
-0.084028 0.911967 -0.353240 
-0.456749 0.914793 -0.265751 
-0.582403 0.917185 -0.179617 
-0.582610 0.919563 -0.086079 
-0.457340 0.921564 0.000621 
-0.226426 0.922884 0.067277 
0.155066 0.923331 0.109136 
0.063269 0.911385 -0.366733 
0.156131 0.911115 -0.371503 
0.234980 0.923312 0.113515 
0.824125 0.911871 -0.299211 
1.006070 0.913564 -0.221018 
1.069790 0.915796 -0.129121 
1.005660 0.918228 -0.037512 
0.823374 0.920489 0.039859 
0.555072 0.922229 0.091234 
0.407774 0.922810 0.104727 
-0.205632 0.929679 -0.329085 
-0.428472 0.931685 -0.264332 
-0.549363 0.936386 -0.087060 
-0.429055 0.938365 -0.001529 
-0.206505 0.939676 0.064228 
0.080791 0.928339 -0.363607 
0.079764 0.940123 0.100042 
-0.067265 0.928908 -0.350633 
-0.328105 0.930617 -0.299978 
-0.503302 0.932841 -0.223627 
-0.564893 0.935237 -0.133238 
-0.503704 0.937443 -0.042571 
-0.328846 0.939120 0.034570 
-0.068233 0.940016 0.086401 
0.163275 0.940080 0.103670 
0.164317 0.928121 -0.366858 
0.677600 0.928301 -0.327092 
0.900151 0.929612 -0.261335 
1.020460 0.931592 -0.175804 
0.899571 0.936292 0.001468 
0.676730 0.938298 0.066220 
0.235023 0.940026 0.106130 
0.391334 0.927854 -0.362906 
0.390307 0.939639 0.100743 
0.236075 0.927951 -0.368994 
0.539330 0.927961 -0.349265 
0.799943 0.928857 -0.297434 
0.974800 0.930535 -0.220293 
1.035990 0.932740 -0.129627 
0.974398 0.935137 -0.039237 
0.799202 0.937361 0.037114 
0.538363 0.939069 0.087769 
0.306780 0.939856 0.103994 
0.307822 0.927897 -0.366534 
-0.551899 0.939403 -0.133315 
-0.507508 0.949627 -0.133476 
-0.432342 0.962213 -0.133629 
-0.331489 0.973552 -0.133694 
-0.208406 0.978428 -0.133545 
-0.069326 0.982314 -0.133336 
0.079513 0.985824 -0.133095 
0.163487 0.985693 -0.132906 
0.235631 0.985580 -0.132743 
0.307775 0.985468 -0.132580 
0.391749 0.985337 -0.132391 
0.540576 0.981363 -0.131960 
0.679643 0.977043 -0.131542 
0.802710 0.971783 -0.131136 
0.903527 0.960129 -0.130616 
0.978652 0.947309 -0.130124 
1.023010 0.936947 -0.129762 
-0.208185 0.964062 -0.241500 
-0.069083 0.964754 -0.253251 
0.079769 0.965686 -0.260275 
0.163746 0.964921 -0.261964 
0.235892 0.964384 -0.263056 
0.308034 0.964696 -0.261638 
0.392004 0.965200 -0.259570 
0.540819 0.963803 -0.251875 
0.679865 0.962677 -0.239497 
0.802896 0.957735 -0.222915 
0.903675 0.950286 -0.202791 
0.978769 0.940940 -0.185921 
-0.549158 0.934040 -0.179344 
-0.507393 0.943259 -0.189273 
-0.432195 0.952370 -0.205805 
-0.331303 0.959504 -0.225473 
-0.507640 0.946102 -0.077427 
-0.432515 0.956049 -0.061047 
-0.331711 0.964185 -0.041320 
-0.208664 0.969564 -0.025000 
-0.069615 0.970869 -0.012684 
0.079204 0.972173 -0.005057 
0.163174 0.971504 -0.002960 
0.235313 0.971030 -0.001522 
0.307461 0.971279 -0.002634 
0.391440 0.971686 -0.004353 
0.540287 0.969917 -0.011308 
0.679386 0.968179 -0.022997 
0.802487 0.962416 -0.038762 
0.903353 0.953965 -0.058034 
0.978520 0.943783 -0.074075 
1.020250 0.933937 -0.083520 
-0.208098 0.946701 -0.292041 
-0.068984 0.946641 -0.309439 
0.079874 0.946811 -0.319894 
0.163854 0.946316 -0.322481 
0.236001 0.945960 -0.324174 
0.308142 0.946091 -0.322156 
0.392110 0.946324 -0.319189 
0.540918 0.945691 -0.308064 
0.679952 0.945316 -0.290038 
0.802970 0.943148 -0.265908 
0.903733 0.939832 -0.236567 
