0.068951 0.041328 -0.005648 
0.067916 0.043008 -0.005648 
0.065724 0.046288 -0.005648 
0.064568 0.047887 -0.005648 
0.063374 0.049457 -0.005648 
0.062141 0.050998 -0.005648 
0.060871 0.052507 -0.005648 
0.059564 0.053986 -0.005648 
0.058221 0.055431 -0.005648 
0.055431 0.058221 -0.005648 
0.053985 0.059564 -0.005648 
0.052507 0.060871 -0.005648 
0.050998 0.062141 -0.005648 
0.049457 0.063374 -0.005648 
0.047887 0.064569 -0.005648 
0.046288 0.065724 -0.005648 
0.043008 0.067916 -0.005648 
0.041328 0.068951 -0.005648 
0.039623 0.069945 -0.005648 
0.037895 0.070896 -0.005648 
0.036143 0.071805 -0.005648 
0.034370 0.072670 -0.005648 
0.032577 0.073492 -0.005648 
0.028931 0.075002 -0.005648 
0.027082 0.075689 -0.005648 
0.025216 0.076331 -0.005648 
0.023335 0.076927 -0.005648 
0.021440 0.077476 -0.005648 
0.019533 0.077979 -0.005648 
0.017613 0.078435 -0.005648 
0.013743 0.079205 -0.005648 
0.011795 0.079518 -0.005648 
0.009840 0.079784 -0.005648 
0.007879 0.080001 -0.005648 
0.005914 0.080170 -0.005648 
0.003944 0.080291 -0.005648 
0.001973 0.080364 -0.005648 
-0.001973 0.080364 -0.005648 
-0.003944 0.080291 -0.005648 
-0.005914 0.080170 -0.005648 
-0.007879 0.080001 -0.005648 
-0.009840 0.079784 -0.005648 
-0.011795 0.079518 -0.005648 
-0.013743 0.079205 -0.005648 
-0.021666 0.108921 0.028908 
-0.021509 0.108132 0.027827 
-0.021313 0.107148 0.026594 
-0.021085 0.106001 0.025236 
-0.020831 0.104723 0.023778 
-0.020557 0.103347 0.022243 
-0.020270 0.101906 0.020659 
-0.000000 0.111055 0.028908 
-0.000000 0.110251 0.027827 
-0.000000 0.109247 0.026594 
-0.000000 0.108077 0.025236 
-0.000000 0.106775 0.023778 
-0.000000 0.105372 0.022243 
-0.000000 0.103902 0.020659 
0.021666 0.108921 0.028908 
0.021509 0.108132 0.027827 
0.021313 0.107148 0.026594 
0.021085 0.106001 0.025236 
0.020831 0.104723 0.023778 
0.020557 0.103347 0.022243 
0.020270 0.101906 0.020659 
0.042499 0.102602 0.028908 
0.042191 0.101858 0.027827 
0.041807 0.100931 0.026594 
0.041359 0.099851 0.025236 
0.040861 0.098647 0.023778 
0.040324 0.097351 0.022243 
0.039761 0.095993 0.020659 
0.061699 0.092339 0.028908 
0.061252 0.091670 0.027827 
0.060694 0.090836 0.026594 
0.060044 0.089863 0.025236 
0.059321 0.088780 0.023778 
0.058541 0.087614 0.022243 
0.057725 0.086391 0.020659 
0.078528 0.078528 0.028908 
0.077959 0.077959 0.027827 
0.077249 0.077249 0.026594 
0.076422 0.076422 0.025236 
0.075501 0.075501 0.023778 
0.074509 0.074509 0.022243 
0.073470 0.073470 0.020659 
0.092339 0.061699 0.028908 
0.091670 0.061252 0.027827 
0.090836 0.060695 0.026594 
0.089863 0.060045 0.025236 
0.088780 0.059321 0.023778 
0.087613 0.058542 0.022243 
0.086391 0.057725 0.020659 
0.102601 0.042499 0.028908 
0.101858 0.042191 0.027827 
0.100931 0.041807 0.026594 
0.099850 0.041360 0.025236 
0.098647 0.040861 0.023778 
0.097351 0.040324 0.022243 
0.095993 0.039762 0.020659 
0.108921 0.021666 0.028908 
0.108132 0.021509 0.027827 
0.107148 0.021313 0.026594 
0.106001 0.021085 0.025236 
0.104723 0.020831 0.023778 
0.103347 0.020557 0.022243 
0.101906 0.020270 0.020659 
0.111055 0.000000 0.028908 
0.110251 0.000000 0.027827 
0.109247 0.000000 0.026594 
0.108077 0.000000 0.025236 
0.106775 0.000000 0.023778 
0.105372 0.000000 0.022243 
0.103902 0.000000 0.020659 
0.108921 -0.021666 0.028908 
0.108132 -0.021509 0.027827 
0.107148 -0.021313 0.026594 
0.106001 -0.021085 0.025236 
0.104723 -0.020831 0.023778 
0.103347 -0.020557 0.022243 
0.101906 -0.020270 0.020659 
0.102601 -0.042499 0.028908 
0.101858 -0.042191 0.027827 
0.100931 -0.041807 0.026594 
0.099850 -0.041359 0.025236 
0.098647 -0.040861 0.023778 
0.097351 -0.040324 0.022243 
0.095993 -0.039761 0.020659 
0.092339 -0.061699 0.028908 
0.091670 -0.061252 0.027827 
0.090836 -0.060694 0.026594 
0.089863 -0.060045 0.025236 
0.088780 -0.059321 0.023778 
0.087613 -0.058541 0.022243 
0.086391 -0.057725 0.020659 
0.078528 -0.078528 0.028908 
0.077959 -0.077959 0.027827 
0.077249 -0.077249 0.026594 
0.076422 -0.076422 0.025236 
0.075501 -0.075501 0.023778 
0.074509 -0.074509 0.022243 
0.073470 -0.073470 0.020659 
0.061699 -0.092339 0.028908 
0.061252 -0.091670 0.027827 
0.060694 -0.090836 0.026594 
0.060045 -0.089863 0.025236 
0.059321 -0.088780 0.023778 
0.058541 -0.087613 0.022243 
0.057725 -0.086391 0.020659 
0.042499 -0.102601 0.028908 
0.042191 -0.101858 0.027827 
0.041807 -0.100931 0.026594 
0.041359 -0.099850 0.025236 
0.040861 -0.098647 0.023778 
0.040324 -0.097351 0.022243 
0.039762 -0.095993 0.020659 
0.021666 -0.108921 0.028908 
0.021509 -0.108132 0.027827 
0.021313 -0.107148 0.026594 
0.021085 -0.106001 0.025236 
0.020831 -0.104723 0.023778 
0.020557 -0.103347 0.022243 
0.020270 -0.101906 0.020659 
0.000000 -0.111055 0.028908 
0.000000 -0.110251 0.027827 
0.000000 -0.109247 0.026594 
0.000000 -0.108077 0.025236 
0.000000 -0.106775 0.023778 
0.000000 -0.105372 0.022243 
0.000000 -0.103902 0.020659 
-0.021666 -0.108921 0.028908 
-0.021509 -0.108132 0.027827 
-0.021313 -0.107148 0.026594 
-0.021085 -0.106001 0.025236 
-0.020831 -0.104723 0.023778 
-0.020557 -0.103347 0.022243 
-0.020270 -0.101906 0.020659 
-0.042499 -0.102601 0.028908 
-0.042191 -0.101858 0.027827 
-0.041807 -0.100931 0.026594 
-0.041359 -0.099850 0.025236 
-0.040861 -0.098647 0.023778 
-0.040324 -0.097351 0.022243 
-0.039762 -0.095993 0.020659 
-0.061699 -0.092339 0.028908 
-0.061252 -0.091670 0.027827 
-0.060694 -0.090836 0.026594 
-0.060045 -0.089863 0.025236 
-0.059321 -0.088780 0.023778 
-0.058541 -0.087613 0.022243 
-0.057725 -0.086391 0.020659 
-0.078528 -0.078528 0.028908 
-0.077959 -0.077959 0.027827 
-0.077249 -0.077249 0.026594 
-0.076422 -0.076422 0.025236 
-0.075501 -0.075501 0.023778 
-0.074509 -0.074509 0.022243 
-0.073470 -0.073470 0.020659 
-0.092339 -0.061699 0.028908 
-0.091670 -0.061252 0.027827 
-0.090836 -0.060694 0.026594 
-0.089863 -0.060045 0.025236 
-0.088780 -0.059321 0.023778 
-0.087613 -0.058541 0.022243 
-0.086391 -0.057725 0.020659 
-0.102601 -0.042499 0.028908 
-0.101858 -0.042191 0.027827 
-0.100931 -0.041807 0.026594 
-0.099850 -0.041359 0.025236 
-0.098647 -0.040861 0.023778 
-0.097351 -0.040324 0.022243 
-0.095993 -0.039762 0.020659 
-0.108921 -0.021666 0.028908 
-0.108132 -0.021509 0.027827 
-0.107148 -0.021313 0.026594 
-0.106001 -0.021085 0.025236 
-0.104723 -0.020831 0.023778 
-0.103347 -0.020557 0.022243 
-0.101906 -0.020270 0.020659 
-0.111055 0.000000 0.028908 
-0.110251 0.000000 0.027827 
-0.109247 0.000000 0.026594 
-0.108077 0.000000 0.025236 
-0.106775 0.000000 0.023778 
-0.105372 0.000000 0.022243 
-0.103902 0.000000 0.020659 
-0.108921 0.021666 0.028908 
-0.108132 0.021509 0.027827 
-0.107148 0.021313 0.026594 
-0.106001 0.021085 0.025236 
-0.104723 0.020831 0.023778 
-0.103347 0.020557 0.022243 
-0.101906 0.020270 0.020659 
-0.102601 0.042499 0.028908 
-0.101858 0.042191 0.027827 
-0.100931 0.041807 0.026594 
-0.099850 0.041359 0.025236 
-0.098647 0.040861 0.023778 
-0.097351 0.040324 0.022243 
-0.095993 0.039762 0.020659 
-0.092339 0.061699 0.028908 
-0.091670 0.061252 0.027827 
-0.090836 0.060694 0.026594 
-0.089863 0.060045 0.025236 
-0.088780 0.059321 0.023778 
-0.087613 0.058541 0.022243 
-0.086391 0.057725 0.020659 
-0.078528 0.078528 0.028908 
-0.077959 0.077959 0.027827 
-0.077249 0.077249 0.026594 
-0.076422 0.076422 0.025236 
-0.075501 0.075501 0.023778 
-0.074509 0.074509 0.022243 
-0.073470 0.073470 0.020659 
-0.061699 0.092339 0.028908 
-0.061252 0.091670 0.027827 
-0.060694 0.090836 0.026594 
-0.060045 0.089863 0.025236 
-0.059321 0.088780 0.023778 
-0.058541 0.087613 0.022243 
-0.057725 0.086391 0.020659 
-0.042499 0.102601 0.028908 
-0.042191 0.101858 0.027827 
-0.041807 0.100931 0.026594 
-0.041359 0.099850 0.025236 
-0.040861 0.098647 0.023778 
-0.040324 0.097351 0.022243 
-0.039762 0.095993 0.020659 
-0.002513 0.102367 0.019049 
-0.005024 0.102275 0.019049 
-0.007533 0.102120 0.019049 
-0.010037 0.101905 0.019049 
-0.012535 0.101628 0.019049 
-0.015025 0.101290 0.019049 
-0.017506 0.100891 0.019049 
0.017506 0.100891 0.019049 
0.015025 0.101290 0.019049 
0.012535 0.101628 0.019049 
0.010037 0.101905 0.019049 
0.007533 0.102120 0.019049 
0.005024 0.102275 0.019049 
0.002513 0.102367 0.019049 
0.036852 0.095537 0.019049 
0.034497 0.096412 0.019049 
0.032120 0.097230 0.019049 
0.029724 0.097989 0.019049 
0.027311 0.098689 0.019049 
0.024880 0.099329 0.019049 
0.022435 0.099910 0.019049 
0.054783 0.086511 0.019049 
0.052643 0.087830 0.019049 
0.050472 0.089095 0.019049 
0.048270 0.090307 0.019049 
0.046039 0.091464 0.019049 
0.043781 0.092567 0.019049 
0.041496 0.093613 0.019049 
0.070608 0.074162 0.019049 
0.068766 0.075872 0.019049 
0.066883 0.077537 0.019049 
0.064960 0.079155 0.019049 
0.062998 0.080725 0.019049 
0.060998 0.082247 0.019049 
0.058962 0.083719 0.019049 
0.083719 0.058962 0.019049 
0.082247 0.060998 0.019049 
0.080725 0.062998 0.019049 
0.079154 0.064961 0.019049 
0.077536 0.066884 0.019049 
0.075872 0.068766 0.019049 
0.074161 0.070608 0.019049 
0.093613 0.041496 0.019049 
0.092567 0.043781 0.019049 
0.091464 0.046039 0.019049 
0.090307 0.048270 0.019049 
0.089095 0.050472 0.019049 
0.087830 0.052643 0.019049 
0.086511 0.054783 0.019049 
0.099910 0.022436 0.019049 
0.099329 0.024881 0.019049 
0.098688 0.027311 0.019049 
0.097988 0.029725 0.019049 
0.097230 0.032120 0.019049 
0.096412 0.034497 0.019049 
0.095537 0.036853 0.019049 
0.102367 0.002513 0.019049 
0.102275 0.005025 0.019049 
0.102120 0.007533 0.019049 
0.101905 0.010037 0.019049 
0.101628 0.012535 0.019049 
0.101290 0.015025 0.019049 
0.100890 0.017506 0.019049 
0.100891 -0.017506 0.019049 
0.101290 -0.015025 0.019049 
0.101628 -0.012535 0.019049 
0.101905 -0.010037 0.019049 
0.102120 -0.007533 0.019049 
0.102275 -0.005024 0.019049 
0.102367 -0.002513 0.019049 
0.095537 -0.036852 0.019049 
0.096412 -0.034497 0.019049 
0.097230 -0.032120 0.019049 
0.097989 -0.029724 0.019049 
0.098689 -0.027311 0.019049 
0.099329 -0.024881 0.019049 
0.099910 -0.022435 0.019049 
0.086511 -0.054783 0.019049 
0.087830 -0.052643 0.019049 
0.089095 -0.050472 0.019049 
0.090307 -0.048270 0.019049 
0.091464 -0.046039 0.019049 
0.092567 -0.043781 0.019049 
0.093613 -0.041496 0.019049 
0.074162 -0.070608 0.019049 
0.075872 -0.068766 0.019049 
0.077537 -0.066883 0.019049 
0.079155 -0.064960 0.019049 
0.080725 -0.062998 0.019049 
0.082247 -0.060998 0.019049 
0.083719 -0.058962 0.019049 
0.058962 -0.083719 0.019049 
0.060998 -0.082247 0.019049 
0.062998 -0.080725 0.019049 
0.064960 -0.079154 0.019049 
0.066883 -0.077536 0.019049 
0.068766 -0.075872 0.019049 
0.070608 -0.074161 0.019049 
0.041496 -0.093613 0.019049 
0.043781 -0.092567 0.019049 
0.046039 -0.091464 0.019049 
0.048270 -0.090307 0.019049 
0.050472 -0.089095 0.019049 
0.052643 -0.087830 0.019049 
0.054783 -0.086511 0.019049 
0.022436 -0.099910 0.019049 
0.024881 -0.099329 0.019049 
0.027311 -0.098688 0.019049 
0.029725 -0.097988 0.019049 
0.032120 -0.097230 0.019049 
0.034497 -0.096412 0.019049 
0.036853 -0.095537 0.019049 
0.002513 -0.102367 0.019049 
0.005024 -0.102275 0.019049 
0.007533 -0.102120 0.019049 
0.010037 -0.101905 0.019049 
0.012535 -0.101628 0.019049 
0.015025 -0.101290 0.019049 
0.017506 -0.100890 0.019049 
-0.017506 -0.100891 0.019049 
-0.015025 -0.101290 0.019049 
-0.012535 -0.101628 0.019049 
-0.010037 -0.101905 0.019049 
-0.007533 -0.102120 0.019049 
-0.005024 -0.102275 0.019049 
-0.002513 -0.102367 0.019049 
-0.036853 -0.095537 0.019049 
-0.034497 -0.096412 0.019049 
-0.032120 -0.097230 0.019049 
-0.029724 -0.097989 0.019049 
-0.027311 -0.098689 0.019049 
-0.024881 -0.099329 0.019049 
-0.022435 -0.099910 0.019049 
-0.054783 -0.086511 0.019049 
-0.052643 -0.087830 0.019049 
-0.050472 -0.089095 0.019049 
-0.048270 -0.090307 0.019049 
-0.046039 -0.091464 0.019049 
-0.043781 -0.092567 0.019049 
-0.041496 -0.093613 0.019049 
-0.070608 -0.074161 0.019049 
-0.068766 -0.075872 0.019049 
-0.066883 -0.077536 0.019049 
-0.064960 -0.079154 0.019049 
-0.062998 -0.080725 0.019049 
-0.060998 -0.082247 0.019049 
-0.058962 -0.083719 0.019049 
-0.083719 -0.058962 0.019049 
-0.082247 -0.060998 0.019049 
-0.080725 -0.062998 0.019049 
-0.079154 -0.064960 0.019049 
-0.077536 -0.066883 0.019049 
-0.075872 -0.068766 0.019049 
-0.074161 -0.070608 0.019049 
-0.093613 -0.041496 0.019049 
-0.092567 -0.043781 0.019049 
-0.091464 -0.046039 0.019049 
-0.090307 -0.048270 0.019049 
-0.089095 -0.050472 0.019049 
-0.087830 -0.052643 0.019049 
-0.086511 -0.054783 0.019049 
-0.099910 -0.022436 0.019049 
-0.099329 -0.024881 0.019049 
-0.098689 -0.027311 0.019049 
-0.097988 -0.029724 0.019049 
-0.097230 -0.032120 0.019049 
-0.096412 -0.034497 0.019049 
-0.095537 -0.036853 0.019049 
-0.102367 -0.002513 0.019049 
-0.102275 -0.005024 0.019049 
-0.102120 -0.007533 0.019049 
-0.101905 -0.010037 0.019049 
-0.101628 -0.012535 0.019049 
-0.101290 -0.015025 0.019049 
-0.100891 -0.017506 0.019049 
-0.100891 0.017506 0.019049 
-0.101290 0.015025 0.019049 
-0.101628 0.012535 0.019049 
-0.101905 0.010037 0.019049 
-0.102120 0.007533 0.019049 
-0.102275 0.005024 0.019049 
-0.102367 0.002513 0.019049 
-0.095537 0.036853 0.019049 
-0.096412 0.034497 0.019049 
-0.097230 0.032120 0.019049 
-0.097988 0.029724 0.019049 
-0.098689 0.027311 0.019049 
-0.099329 0.024881 0.019049 
-0.099910 0.022436 0.019049 
-0.086511 0.054783 0.019049 
-0.087830 0.052643 0.019049 
-0.089095 0.050472 0.019049 
-0.090307 0.048270 0.019049 
-0.091464 0.046039 0.019049 
-0.092567 0.043781 0.019049 
-0.093613 0.041496 0.019049 
-0.074161 0.070608 0.019049 
-0.075872 0.068766 0.019049 
-0.077536 0.066883 0.019049 
-0.079154 0.064960 0.019049 
-0.080725 0.062998 0.019049 
-0.082247 0.060998 0.019049 
-0.083719 0.058962 0.019049 
-0.058962 0.083719 0.019049 
-0.060998 0.082247 0.019049 
-0.062998 0.080725 0.019049 
-0.064960 0.079154 0.019049 
-0.066883 0.077536 0.019049 
-0.068766 0.075872 0.019049 
-0.070608 0.074161 0.019049 
-0.041496 0.093613 0.019049 
-0.043781 0.092567 0.019049 
-0.046039 0.091464 0.019049 
-0.048270 0.090307 0.019049 
-0.050472 0.089095 0.019049 
-0.052643 0.087830 0.019049 
-0.054783 0.086511 0.019049 
-0.022436 0.099910 0.019049 
-0.024881 0.099329 0.019049 
-0.027311 0.098689 0.019049 
-0.029724 0.097988 0.019049 
-0.032120 0.097230 0.019049 
-0.034497 0.096412 0.019049 
-0.036853 0.095537 0.019049 
-0.015460 0.077722 -0.006804 
-0.015242 0.076627 -0.007867 
-0.015029 0.075554 -0.008842 
-0.014819 0.074498 -0.009734 
-0.014611 0.073456 -0.010552 
-0.014406 0.072422 -0.011300 
-0.014201 0.071391 -0.011985 
-0.000000 0.079245 -0.006804 
-0.000000 0.078128 -0.007867 
-0.000000 0.077034 -0.008842 
-0.000000 0.075958 -0.009734 
-0.000000 0.074895 -0.010552 
-0.000000 0.073840 -0.011300 
-0.000000 0.072790 -0.011985 
0.015460 0.077722 -0.006804 
0.015242 0.076627 -0.007867 
0.015029 0.075554 -0.008842 
0.014819 0.074498 -0.009734 
0.014611 0.073456 -0.010552 
0.014405 0.072422 -0.011300 
0.014201 0.071391 -0.011985 
0.030326 0.073213 -0.006804 
0.029898 0.072181 -0.007867 
0.029480 0.071170 -0.008842 
0.029068 0.070176 -0.009734 
0.028661 0.069194 -0.010552 
0.028257 0.068220 -0.011300 
0.027855 0.067249 -0.011985 
0.044026 0.065890 -0.006804 
0.043406 0.064961 -0.007867 
0.042798 0.064052 -0.008842 
0.042200 0.063157 -0.009734 
0.041609 0.062273 -0.010552 
0.041023 0.061396 -0.011300 
0.040440 0.060523 -0.011985 
0.056035 0.056035 -0.006804 
0.055245 0.055245 -0.007867 
0.054471 0.054471 -0.008842 
0.053710 0.053710 -0.009734 
0.052959 0.052959 -0.010552 
0.052213 0.052213 -0.011300 
0.051470 0.051470 -0.011985 
0.065890 0.044026 -0.006804 
0.064961 0.043406 -0.007867 
0.064052 0.042798 -0.008842 
0.063157 0.042200 -0.009734 
0.062273 0.041609 -0.010552 
0.061396 0.041024 -0.011300 
0.060523 0.040440 -0.011985 
0.073213 0.030326 -0.006804 
0.072181 0.029898 -0.007867 
0.071170 0.029480 -0.008842 
0.070176 0.029068 -0.009734 
0.069194 0.028661 -0.010552 
0.068220 0.028258 -0.011300 
0.067249 0.027856 -0.011985 
0.077722 0.015460 -0.006804 
0.076627 0.015242 -0.007867 
0.075554 0.015029 -0.008842 
0.074498 0.014819 -0.009734 
0.073456 0.014611 -0.010552 
0.072422 0.014406 -0.011300 
0.071391 0.014201 -0.011985 
0.079245 0.000000 -0.006804 
0.078128 0.000000 -0.007867 
0.077034 0.000000 -0.008842 
0.075958 0.000000 -0.009734 
0.074895 0.000000 -0.010552 
0.073840 0.000000 -0.011300 
0.072790 0.000000 -0.011985 
0.077722 -0.015460 -0.006804 
0.076627 -0.015242 -0.007867 
0.075554 -0.015029 -0.008842 
0.074498 -0.014819 -0.009734 
0.073456 -0.014611 -0.010552 
0.072422 -0.014405 -0.011300 
0.071391 -0.014201 -0.011985 
0.073213 -0.030326 -0.006804 
0.072181 -0.029898 -0.007867 
0.071170 -0.029480 -0.008842 
0.070176 -0.029068 -0.009734 
0.069194 -0.028661 -0.010552 
0.068220 -0.028257 -0.011300 
0.067249 -0.027855 -0.011985 
0.065890 -0.044026 -0.006804 
0.064961 -0.043406 -0.007867 
0.064052 -0.042798 -0.008842 
0.063157 -0.042200 -0.009734 
0.062273 -0.041609 -0.010552 
0.061396 -0.041023 -0.011300 
0.060523 -0.040440 -0.011985 
0.056035 -0.056035 -0.006804 
0.055245 -0.055245 -0.007867 
0.054471 -0.054471 -0.008842 
0.053710 -0.053710 -0.009734 
0.052959 -0.052959 -0.010552 
0.052213 -0.052213 -0.011300 
0.051470 -0.051470 -0.011985 
0.044026 -0.065890 -0.006804 
0.043406 -0.064961 -0.007867 
0.042798 -0.064052 -0.008842 
0.042200 -0.063157 -0.009734 
0.041609 -0.062273 -0.010552 
0.041024 -0.061396 -0.011300 
0.040440 -0.060523 -0.011985 
0.030326 -0.073213 -0.006804 
0.029898 -0.072181 -0.007867 
0.029480 -0.071170 -0.008842 
0.029068 -0.070176 -0.009734 
0.028661 -0.069194 -0.010552 
0.028258 -0.068220 -0.011300 
0.027856 -0.067249 -0.011985 
0.015460 -0.077722 -0.006804 
0.015242 -0.076627 -0.007867 
0.015029 -0.075554 -0.008842 
0.014819 -0.074498 -0.009734 
0.014611 -0.073456 -0.010552 
0.014406 -0.072422 -0.011300 
0.014201 -0.071391 -0.011985 
0.000000 -0.079245 -0.006804 
0.000000 -0.078128 -0.007867 
0.000000 -0.077034 -0.008842 
0.000000 -0.075958 -0.009734 
0.000000 -0.074895 -0.010552 
0.000000 -0.073840 -0.011300 
0.000000 -0.072790 -0.011985 
-0.015460 -0.077722 -0.006804 
-0.015242 -0.076627 -0.007867 
-0.015029 -0.075554 -0.008842 
-0.014819 -0.074498 -0.009734 
-0.014611 -0.073456 -0.010552 
-0.014406 -0.072422 -0.011300 
-0.014201 -0.071391 -0.011985 
-0.030326 -0.073213 -0.006804 
-0.029898 -0.072181 -0.007867 
-0.029480 -0.071170 -0.008842 
-0.029068 -0.070176 -0.009734 
-0.028661 -0.069194 -0.010552 
-0.028257 -0.068220 -0.011300 
-0.027856 -0.067249 -0.011985 
-0.044026 -0.065890 -0.006804 
-0.043406 -0.064961 -0.007867 
-0.042798 -0.064052 -0.008842 
-0.042200 -0.063157 -0.009734 
-0.041609 -0.062273 -0.010552 
-0.041024 -0.061396 -0.011300 
-0.040440 -0.060523 -0.011985 
-0.056035 -0.056035 -0.006804 
-0.055245 -0.055245 -0.007867 
-0.054471 -0.054471 -0.008842 
-0.053710 -0.053710 -0.009734 
-0.052959 -0.052959 -0.010552 
-0.052213 -0.052213 -0.011300 
-0.051470 -0.051470 -0.011985 
-0.065890 -0.044026 -0.006804 
-0.064961 -0.043406 -0.007867 
-0.064052 -0.042798 -0.008842 
-0.063157 -0.042200 -0.009734 
-0.062273 -0.041609 -0.010552 
-0.061396 -0.041024 -0.011300 
-0.060523 -0.040440 -0.011985 
-0.073213 -0.030326 -0.006804 
-0.072181 -0.029898 -0.007867 
-0.071170 -0.029480 -0.008842 
-0.070176 -0.029068 -0.009734 
-0.069194 -0.028661 -0.010552 
-0.068220 -0.028257 -0.011300 
-0.067249 -0.027856 -0.011985 
-0.077722 -0.015460 -0.006804 
-0.076627 -0.015242 -0.007867 
-0.075554 -0.015029 -0.008842 
-0.074498 -0.014819 -0.009734 
-0.073456 -0.014611 -0.010552 
-0.072422 -0.014406 -0.011300 
-0.071391 -0.014201 -0.011985 
-0.079245 0.000000 -0.006804 
-0.078128 0.000000 -0.007867 
-0.077034 0.000000 -0.008842 
-0.075958 0.000000 -0.009734 
-0.074895 0.000000 -0.010552 
-0.073840 0.000000 -0.011300 
-0.072790 0.000000 -0.011985 
-0.077722 0.015460 -0.006804 
-0.076627 0.015242 -0.007867 
-0.075554 0.015029 -0.008842 
-0.074498 0.014819 -0.009734 
-0.073456 0.014611 -0.010552 
-0.072422 0.014406 -0.011300 
-0.071391 0.014201 -0.011985 
-0.073213 0.030326 -0.006804 
-0.072181 0.029898 -0.007867 
-0.071170 0.029480 -0.008842 
-0.070176 0.029068 -0.009734 
-0.069194 0.028661 -0.010552 
-0.068220 0.028257 -0.011300 
-0.067249 0.027856 -0.011985 
-0.065890 0.044026 -0.006804 
-0.064961 0.043406 -0.007867 
-0.064052 0.042798 -0.008842 
-0.063157 0.042200 -0.009734 
-0.062273 0.041609 -0.010552 
-0.061396 0.041024 -0.011300 
-0.060523 0.040440 -0.011985 
-0.056035 0.056035 -0.006804 
-0.055245 0.055245 -0.007867 
-0.054471 0.054471 -0.008842 
-0.053710 0.053710 -0.009734 
-0.052959 0.052959 -0.010552 
-0.052213 0.052213 -0.011300 
-0.051470 0.051470 -0.011985 
-0.044026 0.065890 -0.006804 
-0.043406 0.064961 -0.007867 
-0.042798 0.064052 -0.008842 
-0.042200 0.063157 -0.009734 
-0.041609 0.062273 -0.010552 
-0.041024 0.061396 -0.011300 
-0.040440 0.060523 -0.011985 
-0.030326 0.073213 -0.006804 
-0.029898 0.072181 -0.007867 
-0.029480 0.071170 -0.008842 
-0.029068 0.070176 -0.009734 
-0.028661 0.069194 -0.010552 
-0.028257 0.068220 -0.011300 
-0.027856 0.067249 -0.011985 
-0.015718 0.069996 -0.012614 
-0.017431 0.069589 -0.012614 
-0.019134 0.069140 -0.012614 
-0.020825 0.068650 -0.012614 
-0.022503 0.068118 -0.012614 
-0.024168 0.067545 -0.012614 
-0.025819 0.066932 -0.012614 
-0.029072 0.065585 -0.012614 
-0.030672 0.064851 -0.012614 
-0.032255 0.064079 -0.012614 
-0.033817 0.063268 -0.012614 
-0.035360 0.062419 -0.012614 
-0.036881 0.061533 -0.012614 
-0.038380 0.060609 -0.012614 
-0.041308 0.058653 -0.012614 
-0.042735 0.057621 -0.012614 
-0.044136 0.056555 -0.012614 
-0.045511 0.055455 -0.012614 
-0.046858 0.054321 -0.012614 
-0.048177 0.053155 -0.012614 
-0.049467 0.051957 -0.012614 
-0.051957 0.049467 -0.012614 
-0.053155 0.048177 -0.012614 
-0.054321 0.046858 -0.012614 
-0.055455 0.045511 -0.012614 
-0.056555 0.044136 -0.012614 
-0.057621 0.042735 -0.012614 
-0.058653 0.041308 -0.012614 
-0.060609 0.038380 -0.012614 
-0.061533 0.036881 -0.012614 
-0.062419 0.035360 -0.012614 
-0.063268 0.033817 -0.012614 
-0.064079 0.032255 -0.012614 
-0.064851 0.030672 -0.012614 
-0.065585 0.029072 -0.012614 
-0.066932 0.025819 -0.012614 
-0.067545 0.024168 -0.012614 
-0.068118 0.022503 -0.012614 
-0.068650 0.020825 -0.012614 
-0.069140 0.019134 -0.012614 
-0.069589 0.017431 -0.012614 
-0.069996 0.015718 -0.012614 
-0.070683 0.012265 -0.012614 
-0.070963 0.010526 -0.012614 
-0.071199 0.008782 -0.012614 
-0.071393 0.007032 -0.012614 
-0.071545 0.005277 -0.012614 
-0.071653 0.003520 -0.012614 
-0.071718 0.001761 -0.012614 
-0.071718 -0.001761 -0.012614 
-0.071653 -0.003520 -0.012614 
-0.071545 -0.005277 -0.012614 
-0.071393 -0.007032 -0.012614 
-0.071199 -0.008782 -0.012614 
-0.070963 -0.010526 -0.012614 
-0.070683 -0.012265 -0.012614 
-0.069996 -0.015718 -0.012614 
-0.069589 -0.017431 -0.012614 
-0.069140 -0.019134 -0.012614 
-0.068650 -0.020825 -0.012614 
-0.068118 -0.022503 -0.012614 
-0.067545 -0.024168 -0.012614 
-0.066932 -0.025819 -0.012614 
-0.065585 -0.029072 -0.012614 
-0.064851 -0.030672 -0.012614 
-0.064079 -0.032255 -0.012614 
-0.063268 -0.033817 -0.012614 
-0.062419 -0.035360 -0.012614 
-0.061533 -0.036881 -0.012614 
-0.060609 -0.038380 -0.012614 
-0.058653 -0.041308 -0.012614 
-0.057621 -0.042735 -0.012614 
-0.056555 -0.044136 -0.012614 
-0.055455 -0.045511 -0.012614 
-0.054321 -0.046858 -0.012614 
-0.053155 -0.048177 -0.012614 
-0.051957 -0.049467 -0.012614 
-0.049467 -0.051957 -0.012614 
-0.048177 -0.053155 -0.012614 
-0.046858 -0.054321 -0.012614 
-0.045511 -0.055455 -0.012614 
-0.044136 -0.056555 -0.012614 
-0.042735 -0.057621 -0.012614 
-0.041308 -0.058653 -0.012614 
-0.038380 -0.060609 -0.012614 
-0.036881 -0.061533 -0.012614 
-0.035360 -0.062419 -0.012614 
-0.033817 -0.063268 -0.012614 
-0.032255 -0.064079 -0.012614 
-0.030672 -0.064851 -0.012614 
-0.029072 -0.065585 -0.012614 
-0.025819 -0.066932 -0.012614 
-0.024168 -0.067545 -0.012614 
-0.022503 -0.068118 -0.012614 
-0.020825 -0.068650 -0.012614 
-0.019134 -0.069140 -0.012614 
-0.017431 -0.069589 -0.012614 
-0.015718 -0.069996 -0.012614 
-0.012265 -0.070683 -0.012614 
-0.010526 -0.070963 -0.012614 
-0.008782 -0.071199 -0.012614 
-0.007032 -0.071393 -0.012614 
-0.005277 -0.071545 -0.012614 
-0.003520 -0.071653 -0.012614 
-0.001761 -0.071718 -0.012614 
0.001761 -0.071718 -0.012614 
0.003520 -0.071653 -0.012614 
0.005277 -0.071545 -0.012614 
0.007032 -0.071393 -0.012614 
0.008782 -0.071199 -0.012614 
0.010526 -0.070963 -0.012614 
0.012265 -0.070683 -0.012614 
0.015718 -0.069996 -0.012614 
0.017431 -0.069589 -0.012614 
0.019134 -0.069140 -0.012614 
0.020825 -0.068650 -0.012614 
0.022503 -0.068118 -0.012614 
0.024168 -0.067545 -0.012614 
0.025819 -0.066932 -0.012614 
0.029072 -0.065585 -0.012614 
0.030672 -0.064851 -0.012614 
0.032255 -0.064079 -0.012614 
0.033818 -0.063268 -0.012614 
0.035360 -0.062419 -0.012614 
0.036881 -0.061533 -0.012614 
0.038380 -0.060609 -0.012614 
0.041308 -0.058653 -0.012614 
0.042735 -0.057621 -0.012614 
0.044136 -0.056555 -0.012614 
0.045511 -0.055455 -0.012614 
0.046858 -0.054321 -0.012614 
0.048177 -0.053155 -0.012614 
0.049467 -0.051957 -0.012614 
0.051957 -0.049467 -0.012614 
0.053155 -0.048177 -0.012614 
0.054321 -0.046858 -0.012614 
0.055455 -0.045511 -0.012614 
0.056555 -0.044136 -0.012614 
0.057621 -0.042735 -0.012614 
0.058653 -0.041308 -0.012614 
0.060609 -0.038380 -0.012614 
0.061533 -0.036881 -0.012614 
0.062419 -0.035360 -0.012614 
0.063268 -0.033817 -0.012614 
0.064079 -0.032255 -0.012614 
0.064851 -0.030672 -0.012614 
0.065585 -0.029072 -0.012614 
0.066932 -0.025819 -0.012614 
0.067545 -0.024168 -0.012614 
0.068118 -0.022503 -0.012614 
0.068650 -0.020825 -0.012614 
0.069140 -0.019134 -0.012614 
0.069589 -0.017431 -0.012614 
0.069996 -0.015718 -0.012614 
0.070683 -0.012265 -0.012614 
0.070963 -0.010526 -0.012614 
0.071199 -0.008782 -0.012614 
0.071393 -0.007032 -0.012614 
0.071545 -0.005277 -0.012614 
0.071653 -0.003520 -0.012614 
0.071718 -0.001760 -0.012614 
0.071718 0.001761 -0.012614 
0.071653 0.003520 -0.012614 
0.071545 0.005277 -0.012614 
0.071393 0.007032 -0.012614 
0.071199 0.008782 -0.012614 
0.070963 0.010526 -0.012614 
0.070683 0.012265 -0.012614 
0.069996 0.015718 -0.012614 
0.069589 0.017431 -0.012614 
0.069140 0.019134 -0.012614 
0.068650 0.020825 -0.012614 
0.068118 0.022503 -0.012614 
0.067545 0.024168 -0.012614 
0.066932 0.025819 -0.012614 
0.065585 0.029072 -0.012614 
0.064851 0.030672 -0.012614 
0.064079 0.032255 -0.012614 
0.063268 0.033818 -0.012614 
0.062419 0.035360 -0.012614 
0.061533 0.036881 -0.012614 
0.060609 0.038380 -0.012614 
0.058653 0.041308 -0.012614 
0.057621 0.042735 -0.012614 
0.056555 0.044136 -0.012614 
0.055455 0.045511 -0.012614 
0.054321 0.046858 -0.012614 
0.053155 0.048177 -0.012614 
0.051957 0.049467 -0.012614 
0.049467 0.051957 -0.012614 
0.048177 0.053155 -0.012614 
0.046858 0.054321 -0.012614 
0.045511 0.055455 -0.012614 
0.044136 0.056555 -0.012614 
0.042735 0.057621 -0.012614 
0.041308 0.058653 -0.012614 
0.038380 0.060609 -0.012614 
0.036881 0.061533 -0.012614 
0.035360 0.062419 -0.012614 
0.033817 0.063268 -0.012614 
0.032255 0.064079 -0.012614 
0.030672 0.064851 -0.012614 
0.029072 0.065585 -0.012614 
0.025818 0.066932 -0.012614 
0.024168 0.067545 -0.012614 
0.022503 0.068118 -0.012614 
0.020825 0.068650 -0.012614 
0.019134 0.069140 -0.012614 
0.017431 0.069589 -0.012614 
0.015718 0.069996 -0.012614 
0.012265 0.070683 -0.012614 
0.010526 0.070963 -0.012614 
0.008782 0.071199 -0.012614 
0.007032 0.071393 -0.012614 
0.005277 0.071545 -0.012614 
0.003520 0.071653 -0.012614 
0.001761 0.071718 -0.012614 
-0.001761 0.071718 -0.012614 
-0.003520 0.071653 -0.012614 
-0.005277 0.071545 -0.012614 
-0.007032 0.071393 -0.012614 
-0.008782 0.071199 -0.012614 
-0.010526 0.070963 -0.012614 
-0.012265 0.070683 -0.012614 
-0.013790 0.069325 -0.013192 
-0.013585 0.068299 -0.013727 
-0.013386 0.067296 -0.014224 
-0.013194 0.066332 -0.014689 
-0.013013 0.065420 -0.015129 
-0.012845 0.064576 -0.015550 
-0.012693 0.063812 -0.015959 
-0.000000 0.070683 -0.013192 
-0.000000 0.069637 -0.013727 
-0.000000 0.068615 -0.014224 
-0.000000 0.067632 -0.014689 
-0.000000 0.066702 -0.015129 
-0.000000 0.065841 -0.015550 
-0.000000 0.065063 -0.015959 
0.013790 0.069325 -0.013192 
0.013585 0.068299 -0.013727 
0.013386 0.067296 -0.014224 
0.013194 0.066332 -0.014689 
0.013013 0.065420 -0.015129 
0.012845 0.064576 -0.015550 
0.012693 0.063812 -0.015959 
0.027049 0.065303 -0.013192 
0.026649 0.064336 -0.013727 
0.026258 0.063392 -0.014224 
0.025881 0.062483 -0.014689 
0.025526 0.061625 -0.015129 
0.025196 0.060829 -0.015550 
0.024898 0.060110 -0.015959 
0.039269 0.058771 -0.013192 
0.038688 0.057901 -0.013727 
0.038120 0.057051 -0.014224 
0.037574 0.056234 -0.014689 
0.037058 0.055461 -0.015129 
0.036579 0.054745 -0.015550 
0.036147 0.054098 -0.015959 
0.049981 0.049981 -0.013192 
0.049241 0.049241 -0.013727 
0.048518 0.048518 -0.014224 
0.047823 0.047823 -0.014689 
0.047165 0.047165 -0.015129 
0.046556 0.046557 -0.015550 
0.046006 0.046006 -0.015959 
0.058771 0.039270 -0.013192 
0.057901 0.038688 -0.013727 
0.057051 0.038120 -0.014224 
0.056234 0.037574 -0.014689 
0.055461 0.037058 -0.015129 
0.054745 0.036579 -0.015550 
0.054097 0.036147 -0.015959 
0.065303 0.027049 -0.013192 
0.064336 0.026649 -0.013727 
0.063392 0.026258 -0.014224 
0.062483 0.025882 -0.014689 
0.061625 0.025526 -0.015129 
0.060829 0.025196 -0.015550 
0.060110 0.024898 -0.015959 
0.069325 0.013790 -0.013192 
0.068299 0.013586 -0.013727 
0.067296 0.013386 -0.014224 
0.066332 0.013194 -0.014689 
0.065420 0.013013 -0.015129 
0.064576 0.012845 -0.015550 
0.063812 0.012693 -0.015959 
0.070683 0.000000 -0.013192 
0.069637 0.000000 -0.013727 
0.068615 0.000000 -0.014224 
0.067632 0.000000 -0.014689 
0.066702 0.000000 -0.015129 
0.065841 0.000000 -0.015550 
0.065063 0.000000 -0.015959 
0.069325 -0.013790 -0.013192 
0.068299 -0.013585 -0.013727 
0.067296 -0.013386 -0.014224 
0.066332 -0.013194 -0.014689 
0.065420 -0.013013 -0.015129 
0.064576 -0.012845 -0.015550 
0.063812 -0.012693 -0.015959 
0.065303 -0.027049 -0.013192 
0.064336 -0.026649 -0.013727 
0.063392 -0.026258 -0.014224 
0.062483 -0.025881 -0.014689 
0.061625 -0.025526 -0.015129 
0.060829 -0.025196 -0.015550 
0.060110 -0.024898 -0.015959 
0.058771 -0.039269 -0.013192 
0.057901 -0.038688 -0.013727 
0.057051 -0.038120 -0.014224 
0.056234 -0.037574 -0.014689 
0.055461 -0.037058 -0.015129 
0.054745 -0.036579 -0.015550 
0.054098 -0.036147 -0.015959 
0.049981 -0.049981 -0.013192 
0.049241 -0.049241 -0.013727 
0.048518 -0.048518 -0.014224 
0.047823 -0.047823 -0.014689 
0.047165 -0.047165 -0.015129 
0.046556 -0.046556 -0.015550 
0.046006 -0.046006 -0.015959 
0.039270 -0.058771 -0.013192 
0.038688 -0.057901 -0.013727 
0.038120 -0.057051 -0.014224 
0.037574 -0.056234 -0.014689 
0.037058 -0.055461 -0.015129 
0.036579 -0.054745 -0.015550 
0.036147 -0.054097 -0.015959 
0.027049 -0.065303 -0.013192 
0.026649 -0.064336 -0.013727 
0.026258 -0.063392 -0.014224 
0.025881 -0.062483 -0.014689 
0.025526 -0.061625 -0.015129 
0.025196 -0.060829 -0.015550 
0.024898 -0.060110 -0.015959 
0.013790 -0.069325 -0.013192 
0.013586 -0.068299 -0.013727 
0.013386 -0.067296 -0.014224 
0.013194 -0.066332 -0.014689 
0.013013 -0.065420 -0.015129 
0.012845 -0.064576 -0.015550 
0.012693 -0.063812 -0.015959 
0.000000 -0.070683 -0.013192 
0.000000 -0.069637 -0.013727 
0.000000 -0.068615 -0.014224 
0.000000 -0.067632 -0.014689 
0.000000 -0.066702 -0.015129 
0.000000 -0.065841 -0.015550 
0.000000 -0.065063 -0.015959 
-0.013790 -0.069325 -0.013192 
-0.013585 -0.068299 -0.013727 
-0.013386 -0.067296 -0.014224 
-0.013194 -0.066332 -0.014689 
-0.013013 -0.065420 -0.015129 
-0.012845 -0.064576 -0.015550 
-0.012693 -0.063812 -0.015959 
-0.027049 -0.065303 -0.013192 
-0.026649 -0.064336 -0.013727 
-0.026258 -0.063392 -0.014224 
-0.025881 -0.062483 -0.014689 
-0.025526 -0.061625 -0.015129 
-0.025196 -0.060829 -0.015550 
-0.024898 -0.060110 -0.015959 
-0.039269 -0.058771 -0.013192 
-0.038688 -0.057901 -0.013727 
-0.038120 -0.057051 -0.014224 
-0.037574 -0.056234 -0.014689 
-0.037058 -0.055461 -0.015129 
-0.036579 -0.054745 -0.015550 
-0.036147 -0.054098 -0.015959 
-0.049981 -0.049981 -0.013192 
-0.049241 -0.049241 -0.013727 
-0.048518 -0.048518 -0.014224 
-0.047823 -0.047823 -0.014689 
-0.047165 -0.047165 -0.015129 
-0.046556 -0.046556 -0.015550 
-0.046006 -0.046006 -0.015959 
-0.058771 -0.039269 -0.013192 
-0.057901 -0.038688 -0.013727 
-0.057051 -0.038120 -0.014224 
-0.056234 -0.037574 -0.014689 
-0.055461 -0.037058 -0.015129 
-0.054745 -0.036579 -0.015550 
-0.054098 -0.036147 -0.015959 
-0.065303 -0.027049 -0.013192 
-0.064336 -0.026649 -0.013727 
-0.063392 -0.026258 -0.014224 
-0.062483 -0.025881 -0.014689 
-0.061625 -0.025526 -0.015129 
-0.060829 -0.025196 -0.015550 
-0.060110 -0.024898 -0.015959 
-0.069325 -0.013790 -0.013192 
-0.068299 -0.013585 -0.013727 
-0.067296 -0.013386 -0.014224 
-0.066332 -0.013194 -0.014689 
-0.065420 -0.013013 -0.015129 
-0.064576 -0.012845 -0.015550 
-0.063812 -0.012693 -0.015959 
-0.070683 0.000000 -0.013192 
-0.069637 0.000000 -0.013727 
-0.068615 0.000000 -0.014224 
-0.067632 0.000000 -0.014689 
-0.066702 0.000000 -0.015129 
-0.065841 0.000000 -0.015550 
-0.065063 0.000000 -0.015959 
-0.069325 0.013790 -0.013192 
-0.068299 0.013585 -0.013727 
-0.067296 0.013386 -0.014224 
-0.066332 0.013194 -0.014689 
-0.065420 0.013013 -0.015129 
-0.064576 0.012845 -0.015550 
-0.063812 0.012693 -0.015959 
-0.065303 0.027049 -0.013192 
-0.064336 0.026649 -0.013727 
-0.063392 0.026258 -0.014224 
-0.062483 0.025881 -0.014689 
-0.061625 0.025526 -0.015129 
-0.060829 0.025196 -0.015550 
-0.060110 0.024898 -0.015959 
-0.058771 0.039269 -0.013192 
-0.057901 0.038688 -0.013727 
-0.057051 0.038120 -0.014224 
-0.056234 0.037574 -0.014689 
-0.055461 0.037058 -0.015129 
-0.054745 0.036579 -0.015550 
-0.054097 0.036147 -0.015959 
-0.049981 0.049981 -0.013192 
-0.049241 0.049241 -0.013727 
-0.048518 0.048518 -0.014224 
-0.047823 0.047823 -0.014689 
-0.047165 0.047165 -0.015129 
-0.046556 0.046556 -0.015550 
-0.046006 0.046006 -0.015959 
-0.039269 0.058771 -0.013192 
-0.038688 0.057901 -0.013727 
-0.038120 0.057051 -0.014224 
-0.037574 0.056234 -0.014689 
-0.037058 0.055461 -0.015129 
-0.036579 0.054745 -0.015550 
-0.036147 0.054097 -0.015959 
-0.027049 0.065303 -0.013192 
-0.026649 0.064336 -0.013727 
-0.026258 0.063392 -0.014224 
-0.025881 0.062483 -0.014689 
-0.025526 0.061625 -0.015129 
-0.025196 0.060829 -0.015550 
-0.024898 0.060110 -0.015959 
-0.014106 0.062818 -0.016361 
-0.015643 0.062452 -0.016361 
-0.017171 0.062050 -0.016361 
-0.018689 0.061609 -0.016361 
-0.020195 0.061132 -0.016361 
-0.021690 0.060618 -0.016361 
-0.023171 0.060068 -0.016361 
-0.026090 0.058859 -0.016361 
-0.027527 0.058200 -0.016361 
-0.028947 0.057507 -0.016361 
-0.030349 0.056780 -0.016361 
-0.031734 0.056018 -0.016361 
-0.033099 0.055222 -0.016361 
-0.034444 0.054393 -0.016361 
-0.037072 0.052638 -0.016361 
-0.038352 0.051712 -0.016361 
-0.039610 0.050755 -0.016361 
-0.040843 0.049768 -0.016361 
-0.042052 0.048750 -0.016361 
-0.043236 0.047704 -0.016361 
-0.044394 0.046628 -0.016361 
-0.046628 0.044394 -0.016361 
-0.047704 0.043236 -0.016361 
-0.048750 0.042052 -0.016361 
-0.049768 0.040843 -0.016361 
-0.050755 0.039610 -0.016361 
-0.051712 0.038352 -0.016361 
-0.052638 0.037072 -0.016361 
-0.054393 0.034444 -0.016361 
-0.055222 0.033099 -0.016361 
-0.056018 0.031734 -0.016361 
-0.056780 0.030349 -0.016361 
-0.057507 0.028947 -0.016361 
-0.058200 0.027527 -0.016361 
-0.058859 0.026090 -0.016361 
-0.060068 0.023171 -0.016361 
-0.060618 0.021690 -0.016361 
-0.061132 0.020195 -0.016361 
-0.061609 0.018689 -0.016361 
-0.062050 0.017171 -0.016361 
-0.062452 0.015643 -0.016361 
-0.062818 0.014106 -0.016361 
-0.063434 0.011007 -0.016361 
-0.063685 0.009447 -0.016361 
-0.063898 0.007881 -0.016361 
-0.064072 0.006311 -0.016361 
-0.064207 0.004736 -0.016361 
-0.064304 0.003159 -0.016361 
-0.064363 0.001580 -0.016361 
-0.064363 -0.001580 -0.016361 
-0.064304 -0.003159 -0.016361 
-0.064207 -0.004736 -0.016361 
-0.064072 -0.006311 -0.016361 
-0.063898 -0.007881 -0.016361 
-0.063685 -0.009447 -0.016361 
-0.063434 -0.011007 -0.016361 
-0.062818 -0.014106 -0.016361 
-0.062452 -0.015643 -0.016361 
-0.062050 -0.017171 -0.016361 
-0.061609 -0.018689 -0.016361 
-0.061132 -0.020195 -0.016361 
-0.060618 -0.021690 -0.016361 
-0.060068 -0.023171 -0.016361 
-0.058859 -0.026090 -0.016361 
-0.058200 -0.027527 -0.016361 
-0.057507 -0.028947 -0.016361 
-0.056780 -0.030349 -0.016361 
-0.056018 -0.031734 -0.016361 
-0.055222 -0.033099 -0.016361 
-0.054393 -0.034444 -0.016361 
-0.052638 -0.037072 -0.016361 
-0.051712 -0.038352 -0.016361 
-0.050755 -0.039610 -0.016361 
-0.049768 -0.040843 -0.016361 
-0.048750 -0.042052 -0.016361 
-0.047704 -0.043236 -0.016361 
-0.046628 -0.044394 -0.016361 
-0.044394 -0.046628 -0.016361 
-0.043236 -0.047704 -0.016361 
-0.042052 -0.048750 -0.016361 
-0.040843 -0.049768 -0.016361 
-0.039610 -0.050755 -0.016361 
-0.038352 -0.051712 -0.016361 
-0.037072 -0.052638 -0.016361 
-0.034444 -0.054393 -0.016361 
-0.033099 -0.055222 -0.016361 
-0.031734 -0.056018 -0.016361 
-0.030349 -0.056780 -0.016361 
-0.028947 -0.057507 -0.016361 
-0.027527 -0.058200 -0.016361 
-0.026090 -0.058859 -0.016361 
-0.023171 -0.060068 -0.016361 
-0.021690 -0.060618 -0.016361 
-0.020195 -0.061132 -0.016361 
-0.018689 -0.061609 -0.016361 
-0.017171 -0.062050 -0.016361 
-0.015643 -0.062452 -0.016361 
-0.014106 -0.062818 -0.016361 
-0.011007 -0.063434 -0.016361 
-0.009447 -0.063685 -0.016361 
-0.007881 -0.063898 -0.016361 
-0.006310 -0.064072 -0.016361 
-0.004736 -0.064207 -0.016361 
-0.003159 -0.064304 -0.016361 
-0.001580 -0.064363 -0.016361 
0.001580 -0.064363 -0.016361 
0.003159 -0.064304 -0.016361 
0.004736 -0.064207 -0.016361 
0.006311 -0.064072 -0.016361 
0.007881 -0.063898 -0.016361 
0.009447 -0.063685 -0.016361 
0.011007 -0.063434 -0.016361 
0.014106 -0.062818 -0.016361 
0.015644 -0.062452 -0.016361 
0.017171 -0.062050 -0.016361 
0.018689 -0.061609 -0.016361 
0.020195 -0.061132 -0.016361 
0.021690 -0.060618 -0.016361 
0.023171 -0.060068 -0.016361 
0.026090 -0.058859 -0.016361 
0.027527 -0.058200 -0.016361 
0.028947 -0.057507 -0.016361 
0.030349 -0.056780 -0.016361 
0.031734 -0.056018 -0.016361 
0.033099 -0.055222 -0.016361 
0.034444 -0.054393 -0.016361 
0.037072 -0.052638 -0.016361 
0.038352 -0.051712 -0.016361 
0.039610 -0.050755 -0.016361 
0.040843 -0.049768 -0.016361 
0.042052 -0.048750 -0.016361 
0.043236 -0.047704 -0.016361 
0.044394 -0.046628 -0.016361 
0.046628 -0.044394 -0.016361 
0.047704 -0.043236 -0.016361 
0.048750 -0.042052 -0.016361 
0.049768 -0.040843 -0.016361 
0.050755 -0.039610 -0.016361 
0.051712 -0.038352 -0.016361 
0.052638 -0.037072 -0.016361 
0.054393 -0.034444 -0.016361 
0.055222 -0.033099 -0.016361 
0.056018 -0.031734 -0.016361 
0.056780 -0.030349 -0.016361 
0.057507 -0.028947 -0.016361 
0.058200 -0.027527 -0.016361 
0.058859 -0.026090 -0.016361 
0.060068 -0.023171 -0.016361 
0.060618 -0.021690 -0.016361 
0.061132 -0.020195 -0.016361 
0.061609 -0.018689 -0.016361 
0.062050 -0.017171 -0.016361 
0.062452 -0.015643 -0.016361 
0.062818 -0.014106 -0.016361 
0.063434 -0.011007 -0.016361 
0.063685 -0.009447 -0.016361 
0.063898 -0.007881 -0.016361 
0.064072 -0.006310 -0.016361 
0.064207 -0.004736 -0.016361 
0.064304 -0.003159 -0.016361 
0.064363 -0.001580 -0.016361 
0.064363 0.001580 -0.016361 
0.064304 0.003159 -0.016361 
0.064207 0.004736 -0.016361 
0.064072 0.006311 -0.016361 
0.063898 0.007881 -0.016361 
0.063685 0.009447 -0.016361 
0.063434 0.011007 -0.016361 
0.062818 0.014106 -0.016361 
0.062452 0.015644 -0.016361 
0.062050 0.017171 -0.016361 
0.061609 0.018689 -0.016361 
0.061132 0.020195 -0.016361 
0.060618 0.021690 -0.016361 
0.060068 0.023171 -0.016361 
0.058859 0.026090 -0.016361 
0.058200 0.027527 -0.016361 
0.057507 0.028947 -0.016361 
0.056780 0.030349 -0.016361 
0.056018 0.031734 -0.016361 
0.055222 0.033099 -0.016361 
0.054393 0.034444 -0.016361 
0.052638 0.037072 -0.016361 
0.051712 0.038352 -0.016361 
0.050755 0.039610 -0.016361 
0.049768 0.040843 -0.016361 
0.048750 0.042052 -0.016361 
0.047704 0.043236 -0.016361 
0.046628 0.044394 -0.016361 
0.044394 0.046628 -0.016361 
0.043236 0.047704 -0.016361 
0.042052 0.048750 -0.016361 
0.040843 0.049768 -0.016361 
0.039610 0.050755 -0.016361 
0.038352 0.051712 -0.016361 
0.037072 0.052638 -0.016361 
0.034444 0.054393 -0.016361 
0.033099 0.055222 -0.016361 
0.031734 0.056018 -0.016361 
0.030349 0.056780 -0.016361 
0.028947 0.057507 -0.016361 
0.027527 0.058201 -0.016361 
0.026090 0.058859 -0.016361 
0.023171 0.060068 -0.016361 
0.021689 0.060618 -0.016361 
0.020195 0.061132 -0.016361 
0.018689 0.061609 -0.016361 
0.017171 0.062050 -0.016361 
0.015643 0.062452 -0.016361 
0.014106 0.062818 -0.016361 
0.011007 0.063434 -0.016361 
0.009447 0.063685 -0.016361 
0.007881 0.063898 -0.016361 
0.006310 0.064072 -0.016361 
0.004736 0.064207 -0.016361 
0.003159 0.064304 -0.016361 
0.001580 0.064363 -0.016361 
-0.001580 0.064363 -0.016361 
-0.003159 0.064304 -0.016361 
-0.004736 0.064207 -0.016361 
-0.006311 0.064072 -0.016361 
-0.007881 0.063898 -0.016361 
-0.009447 0.063685 -0.016361 
-0.011007 0.063434 -0.016361 
-0.018578 0.107066 0.029784 
-0.015945 0.107489 0.029784 
-0.013302 0.107848 0.029784 
-0.010651 0.108142 0.029784 
-0.007994 0.108371 0.029784 
-0.005332 0.108535 0.029784 
-0.002667 0.108633 0.029784 
-0.039108 0.101384 0.029784 
-0.036608 0.102313 0.029784 
-0.034086 0.103181 0.029784 
-0.031544 0.103986 0.029784 
-0.028982 0.104729 0.029784 
-0.026404 0.105409 0.029784 
-0.023809 0.106025 0.029784 
-0.058136 0.091807 0.029784 
-0.055865 0.093206 0.029784 
-0.053561 0.094548 0.029784 
-0.051225 0.095834 0.029784 
-0.048857 0.097063 0.029784 
-0.046461 0.098233 0.029784 
-0.044036 0.099343 0.029784 
-0.074929 0.078701 0.029784 
-0.072975 0.080516 0.029784 
-0.070977 0.082282 0.029784 
-0.068937 0.084000 0.029784 
-0.066854 0.085666 0.029784 
-0.064732 0.087281 0.029784 
-0.062571 0.088844 0.029784 
-0.088844 0.062571 0.029784 
-0.087281 0.064732 0.029784 
-0.085666 0.066854 0.029784 
-0.084000 0.068937 0.029784 
-0.082282 0.070977 0.029784 
-0.080516 0.072975 0.029784 
-0.078701 0.074929 0.029784 
-0.099343 0.044036 0.029784 
-0.098233 0.046461 0.029784 
-0.097063 0.048857 0.029784 
-0.095834 0.051225 0.029784 
-0.094548 0.053561 0.029784 
-0.093206 0.055865 0.029784 
-0.091807 0.058136 0.029784 
-0.106025 0.023809 0.029784 
-0.105409 0.026404 0.029784 
-0.104729 0.028982 0.029784 
-0.103986 0.031544 0.029784 
-0.103181 0.034086 0.029784 
-0.102313 0.036608 0.029784 
-0.101384 0.039108 0.029784 
-0.108633 0.002667 0.029784 
-0.108535 0.005332 0.029784 
-0.108371 0.007994 0.029784 
-0.108142 0.010651 0.029784 
-0.107848 0.013302 0.029784 
-0.107489 0.015945 0.029784 
-0.107066 0.018578 0.029784 
-0.107066 -0.018578 0.029784 
-0.107489 -0.015945 0.029784 
-0.107848 -0.013302 0.029784 
-0.108142 -0.010651 0.029784 
-0.108371 -0.007994 0.029784 
-0.108535 -0.005332 0.029784 
-0.108633 -0.002667 0.029784 
-0.101384 -0.039108 0.029784 
-0.102313 -0.036608 0.029784 
-0.103181 -0.034086 0.029784 
-0.103986 -0.031544 0.029784 
-0.104729 -0.028982 0.029784 
-0.105409 -0.026404 0.029784 
-0.106025 -0.023809 0.029784 
-0.091807 -0.058136 0.029784 
-0.093206 -0.055865 0.029784 
-0.094548 -0.053561 0.029784 
-0.095834 -0.051225 0.029784 
-0.097063 -0.048857 0.029784 
-0.098233 -0.046461 0.029784 
-0.099343 -0.044036 0.029784 
-0.078701 -0.074929 0.029784 
-0.080516 -0.072975 0.029784 
-0.082282 -0.070977 0.029784 
-0.084000 -0.068937 0.029784 
-0.085666 -0.066854 0.029784 
-0.087281 -0.064732 0.029784 
-0.088844 -0.062571 0.029784 
-0.062571 -0.088844 0.029784 
-0.064732 -0.087281 0.029784 
-0.066854 -0.085666 0.029784 
-0.068937 -0.084000 0.029784 
-0.070977 -0.082282 0.029784 
-0.072975 -0.080516 0.029784 
-0.074929 -0.078701 0.029784 
-0.044036 -0.099343 0.029784 
-0.046461 -0.098233 0.029784 
-0.048857 -0.097063 0.029784 
-0.051225 -0.095834 0.029784 
-0.053561 -0.094548 0.029784 
-0.055865 -0.093206 0.029784 
-0.058136 -0.091807 0.029784 
-0.023809 -0.106025 0.029784 
-0.026404 -0.105409 0.029784 
-0.028982 -0.104729 0.029784 
-0.031544 -0.103986 0.029784 
-0.034086 -0.103181 0.029784 
-0.036608 -0.102313 0.029784 
-0.039108 -0.101384 0.029784 
-0.002667 -0.108633 0.029784 
-0.005332 -0.108535 0.029784 
-0.007994 -0.108371 0.029784 
-0.010651 -0.108142 0.029784 
-0.013302 -0.107848 0.029784 
-0.015945 -0.107489 0.029784 
-0.018578 -0.107066 0.029784 
0.018578 -0.107066 0.029784 
0.015945 -0.107489 0.029784 
0.013302 -0.107848 0.029784 
0.010651 -0.108142 0.029784 
0.007994 -0.108371 0.029784 
0.005332 -0.108535 0.029784 
0.002667 -0.108633 0.029784 
0.039108 -0.101384 0.029784 
0.036608 -0.102313 0.029784 
0.034086 -0.103181 0.029784 
0.031544 -0.103986 0.029784 
0.028982 -0.104729 0.029784 
0.026404 -0.105409 0.029784 
0.023809 -0.106025 0.029784 
0.058136 -0.091807 0.029784 
0.055865 -0.093206 0.029784 
0.053561 -0.094548 0.029784 
0.051225 -0.095834 0.029784 
0.048857 -0.097063 0.029784 
0.046461 -0.098233 0.029784 
0.044036 -0.099343 0.029784 
0.074930 -0.078701 0.029784 
0.072975 -0.080516 0.029784 
0.070977 -0.082282 0.029784 
0.068937 -0.083999 0.029784 
0.066854 -0.085666 0.029784 
0.064732 -0.087281 0.029784 
0.062571 -0.088843 0.029784 
0.088844 -0.062571 0.029784 
0.087281 -0.064732 0.029784 
0.085666 -0.066854 0.029784 
0.084000 -0.068937 0.029784 
0.082283 -0.070977 0.029784 
0.080516 -0.072975 0.029784 
0.078701 -0.074929 0.029784 
0.099343 -0.044036 0.029784 
0.098233 -0.046460 0.029784 
0.097063 -0.048857 0.029784 
0.095834 -0.051224 0.029784 
0.094548 -0.053561 0.029784 
0.093206 -0.055865 0.029784 
0.091807 -0.058136 0.029784 
0.106025 -0.023809 0.029784 
0.105409 -0.026403 0.029784 
0.104729 -0.028982 0.029784 
0.103986 -0.031544 0.029784 
0.103181 -0.034086 0.029784 
0.102314 -0.036608 0.029784 
0.101384 -0.039108 0.029784 
0.108633 -0.002667 0.029784 
0.108535 -0.005332 0.029784 
0.108371 -0.007994 0.029784 
0.108142 -0.010651 0.029784 
0.107848 -0.013302 0.029784 
0.107490 -0.015944 0.029784 
0.107066 -0.018578 0.029784 
0.107066 0.018578 0.029784 
0.107489 0.015945 0.029784 
0.107848 0.013302 0.029784 
0.108142 0.010651 0.029784 
0.108371 0.007994 0.029784 
0.108535 0.005332 0.029784 
0.108633 0.002667 0.029784 
0.101384 0.039108 0.029784 
0.102313 0.036608 0.029784 
0.103181 0.034087 0.029784 
0.103986 0.031544 0.029784 
0.104729 0.028983 0.029784 
0.105409 0.026404 0.029784 
0.106025 0.023809 0.029784 
0.091807 0.058136 0.029784 
0.093206 0.055865 0.029784 
0.094548 0.053561 0.029784 
0.095834 0.051225 0.029784 
0.097063 0.048857 0.029784 
0.098233 0.046461 0.029784 
0.099343 0.044036 0.029784 
0.078701 0.074930 0.029784 
0.080516 0.072976 0.029784 
0.082282 0.070977 0.029784 
0.083999 0.068937 0.029784 
0.085666 0.066855 0.029784 
0.087281 0.064732 0.029784 
0.088843 0.062571 0.029784 
0.062571 0.088844 0.029784 
0.064732 0.087281 0.029784 
0.066854 0.085666 0.029784 
0.068937 0.084000 0.029784 
0.070977 0.082283 0.029784 
0.072975 0.080516 0.029784 
0.074929 0.078701 0.029784 
0.044036 0.099343 0.029784 
0.046460 0.098233 0.029784 
0.048857 0.097063 0.029784 
0.051224 0.095834 0.029784 
0.053561 0.094548 0.029784 
0.055865 0.093206 0.029784 
0.058136 0.091807 0.029784 
0.023809 0.106026 0.029784 
0.026403 0.105409 0.029784 
0.028982 0.104729 0.029784 
0.031544 0.103986 0.029784 
0.034086 0.103181 0.029784 
0.036608 0.102314 0.029784 
0.039108 0.101384 0.029784 
0.002667 0.108633 0.029784 
0.005332 0.108535 0.029784 
0.007994 0.108371 0.029784 
0.010651 0.108142 0.029784 
0.013302 0.107848 0.029784 
0.015944 0.107490 0.029784 
0.018578 0.107066 0.029784 
-0.111934 0.000000 0.030518 
-0.112000 0.000000 0.031020 
-0.111848 0.000000 0.031321 
-0.111503 0.000000 0.031420 
-0.110988 0.000000 0.031315 
-0.110328 0.000000 0.031008 
-0.109546 0.000000 0.030498 
-0.107441 0.021371 0.030498 
-0.108208 0.021524 0.031008 
-0.108856 0.021653 0.031315 
-0.109361 0.021753 0.031420 
-0.109699 0.021821 0.031321 
